ncols         169
nrows         109
xllcorner     813515.002154
yllcorner     1143050.21741
cellsize      100
NODATA_value  -9999
-9999 -9999 -9999 -9999 -9999 -9999 -9999 -9999 -9999 -9999 -9999 -9999 -9999 -9999 -9999 -9999 -9999 -9999 -9999 -9999 -9999 -9999 -9999 -9999 -9999 -9999 -9999 -9999 -9999 -9999 -9999 -9999 -9999 -9999 -9999 -9999 -9999 -9999 -9999 -9999 -9999 -9999 -9999 -9999 -9999 -9999 -9999 -9999 -9999 -9999 -9999 -9999 -9999 -9999 -9999 -9999 -9999 -9999 -9999 -9999 -9999 -9999 -9999 -9999 -9999 -9999 -9999 -9999 -9999 -9999 -9999 -9999 -9999 -9999 -9999 -9999 -9999 -9999 93 86 91 94 79 74 64 75 94 102 97 99 98 90 93 78 60 63 85 72 85 101 109 112 110 97 82 92 99 97 99 93 99 105 107 119 118 116 120 110 115 102 88 94 96 91 77 74 99 89 94 95 91 80 82 86 90 89 80 67 66 71 71 74 71 67 67 67 69 70 56 45 42 43 43 43 48 52 55 60 62 52 48 56 51 -9999 -9999 -9999 -9999 -9999 -9999
-9999 -9999 -9999 -9999 -9999 -9999 -9999 -9999 -9999 -9999 -9999 -9999 -9999 -9999 -9999 -9999 -9999 -9999 -9999 -9999 -9999 -9999 -9999 -9999 -9999 -9999 -9999 -9999 -9999 -9999 -9999 -9999 -9999 -9999 -9999 -9999 -9999 -9999 -9999 -9999 -9999 -9999 -9999 -9999 -9999 -9999 -9999 -9999 -9999 -9999 -9999 -9999 -9999 -9999 -9999 -9999 -9999 -9999 -9999 -9999 -9999 -9999 -9999 -9999 -9999 -9999 -9999 -9999 -9999 -9999 -9999 -9999 -9999 -9999 -9999 -9999 -9999 93 95 90 96 97 83 72 70 82 105 106 103 100 97 90 78 67 61 70 77 79 98 104 109 105 97 87 79 96 114 114 115 104 104 112 112 124 119 119 113 105 98 99 105 111 112 108 99 102 104 99 100 99 89 82 92 92 78 77 76 62 76 78 75 77 75 70 60 62 67 72 51 42 43 44 47 48 50 50 50 56 59 51 47 54 58 -9999 -9999 -9999 -9999 -9999 -9999
-9999 -9999 -9999 -9999 -9999 -9999 -9999 -9999 -9999 -9999 -9999 -9999 -9999 -9999 -9999 -9999 -9999 -9999 -9999 -9999 -9999 -9999 -9999 -9999 -9999 -9999 -9999 -9999 -9999 -9999 -9999 -9999 -9999 -9999 -9999 -9999 -9999 -9999 -9999 -9999 -9999 -9999 -9999 -9999 -9999 -9999 -9999 -9999 -9999 -9999 -9999 -9999 -9999 -9999 -9999 -9999 -9999 -9999 -9999 -9999 -9999 -9999 -9999 -9999 -9999 -9999 -9999 -9999 -9999 -9999 -9999 -9999 -9999 -9999 -9999 -9999 -9999 103 97 89 92 92 85 72 69 112 125 119 115 101 97 91 70 69 86 97 79 84 91 93 93 87 85 82 85 100 118 118 116 107 120 118 114 118 116 109 112 108 98 97 110 118 111 105 114 112 109 98 102 101 97 92 96 88 79 74 67 66 75 78 76 77 80 77 69 65 64 66 53 50 47 46 50 48 49 52 51 57 60 55 50 56 58 -9999 -9999 -9999 -9999 -9999 -9999
-9999 -9999 -9999 -9999 -9999 -9999 -9999 -9999 -9999 -9999 -9999 -9999 -9999 -9999 -9999 -9999 -9999 -9999 -9999 -9999 -9999 -9999 -9999 -9999 -9999 -9999 -9999 -9999 -9999 -9999 -9999 -9999 -9999 -9999 -9999 -9999 -9999 -9999 -9999 -9999 -9999 -9999 -9999 -9999 -9999 -9999 -9999 -9999 -9999 -9999 -9999 -9999 -9999 -9999 -9999 -9999 -9999 -9999 -9999 -9999 -9999 -9999 -9999 -9999 -9999 -9999 -9999 -9999 -9999 -9999 -9999 -9999 -9999 -9999 -9999 -9999 -9999 99 93 84 92 103 88 69 67 118 128 121 108 96 88 76 61 83 104 105 74 72 70 70 74 101 98 104 103 111 112 113 120 132 127 117 116 121 111 119 121 104 95 103 106 109 111 107 114 115 107 96 96 91 89 85 83 82 75 74 67 74 79 78 75 78 76 73 66 66 63 64 52 48 43 44 51 47 46 50 52 58 60 59 50 55 -9999 -9999 -9999 -9999 -9999 -9999 -9999
-9999 -9999 -9999 -9999 -9999 -9999 -9999 -9999 -9999 -9999 -9999 -9999 -9999 -9999 -9999 -9999 -9999 -9999 -9999 -9999 -9999 -9999 -9999 -9999 -9999 -9999 -9999 -9999 -9999 -9999 -9999 -9999 -9999 -9999 -9999 -9999 -9999 -9999 -9999 -9999 -9999 -9999 -9999 -9999 -9999 -9999 -9999 -9999 -9999 -9999 -9999 -9999 -9999 -9999 -9999 -9999 -9999 -9999 -9999 -9999 -9999 -9999 -9999 -9999 -9999 -9999 -9999 -9999 -9999 -9999 -9999 -9999 -9999 -9999 -9999 -9999 -9999 103 96 99 117 117 91 73 76 122 130 126 119 90 75 77 78 113 111 93 84 73 71 80 109 122 117 121 126 116 122 129 125 125 114 118 125 124 118 128 116 97 101 112 115 110 119 114 110 111 102 93 95 85 80 81 75 72 73 76 74 79 81 74 69 68 64 63 63 67 70 66 53 45 40 43 49 46 45 45 53 58 59 59 59 53 -9999 -9999 -9999 -9999 -9999 -9999 -9999
-9999 -9999 -9999 -9999 -9999 -9999 -9999 -9999 -9999 -9999 -9999 -9999 -9999 -9999 -9999 -9999 -9999 -9999 -9999 -9999 -9999 -9999 -9999 -9999 -9999 -9999 -9999 -9999 -9999 -9999 -9999 -9999 -9999 -9999 -9999 -9999 -9999 -9999 -9999 -9999 -9999 -9999 -9999 -9999 -9999 -9999 -9999 -9999 -9999 -9999 -9999 -9999 -9999 -9999 -9999 -9999 -9999 -9999 -9999 -9999 -9999 -9999 -9999 -9999 -9999 -9999 -9999 -9999 -9999 -9999 -9999 -9999 -9999 -9999 -9999 -9999 112 102 115 123 126 113 93 78 96 121 131 128 117 105 82 88 116 118 111 95 80 75 73 83 119 131 128 131 130 121 122 134 125 123 119 124 123 119 120 123 113 102 106 108 114 117 119 117 120 109 97 94 88 84 77 77 80 78 79 81 85 85 79 69 62 65 65 65 67 68 71 67 59 41 42 42 48 47 49 49 54 57 55 58 60 53 -9999 -9999 -9999 -9999 -9999 -9999 -9999
-9999 -9999 -9999 -9999 -9999 -9999 -9999 -9999 -9999 -9999 -9999 -9999 -9999 -9999 -9999 -9999 -9999 -9999 -9999 -9999 -9999 -9999 -9999 -9999 -9999 -9999 -9999 -9999 -9999 -9999 -9999 -9999 -9999 -9999 -9999 -9999 -9999 -9999 -9999 -9999 -9999 -9999 -9999 -9999 -9999 -9999 -9999 -9999 -9999 -9999 -9999 -9999 -9999 -9999 -9999 -9999 -9999 -9999 -9999 -9999 -9999 -9999 -9999 -9999 -9999 -9999 -9999 -9999 -9999 -9999 -9999 -9999 -9999 -9999 -9999 -9999 121 119 125 128 113 93 94 114 123 122 125 116 106 91 77 94 117 119 101 100 74 78 82 101 124 135 136 128 121 128 130 131 129 130 131 123 125 126 120 112 103 107 108 109 108 118 120 112 104 106 100 89 81 76 78 78 82 79 81 83 86 79 73 64 64 68 68 62 70 71 74 65 56 41 38 40 44 47 49 47 49 50 48 58 58 55 -9999 -9999 -9999 -9999 -9999 -9999 -9999
-9999 -9999 -9999 -9999 -9999 -9999 -9999 -9999 -9999 -9999 -9999 -9999 -9999 -9999 -9999 -9999 -9999 -9999 -9999 -9999 -9999 -9999 -9999 -9999 -9999 -9999 -9999 -9999 -9999 -9999 -9999 -9999 -9999 -9999 -9999 -9999 -9999 -9999 -9999 -9999 -9999 -9999 -9999 -9999 -9999 -9999 -9999 -9999 -9999 -9999 -9999 -9999 -9999 -9999 -9999 -9999 -9999 -9999 -9999 -9999 -9999 -9999 -9999 -9999 -9999 -9999 -9999 -9999 -9999 -9999 -9999 -9999 -9999 -9999 -9999 -9999 131 139 137 135 115 95 99 117 125 124 114 98 86 76 82 105 119 110 104 97 73 77 95 107 123 138 136 129 122 126 125 136 138 141 138 130 134 134 121 108 104 110 110 106 102 121 123 118 112 118 105 93 96 89 88 88 80 83 82 82 74 67 63 61 68 70 66 72 74 72 69 60 56 40 39 38 40 46 54 47 48 44 49 53 55 -9999 -9999 -9999 -9999 -9999 -9999 -9999 -9999
-9999 -9999 -9999 -9999 -9999 -9999 -9999 -9999 -9999 -9999 -9999 -9999 -9999 -9999 -9999 -9999 -9999 -9999 -9999 -9999 -9999 -9999 -9999 -9999 -9999 -9999 -9999 -9999 -9999 -9999 -9999 -9999 -9999 -9999 -9999 -9999 -9999 -9999 -9999 -9999 -9999 -9999 -9999 -9999 -9999 -9999 -9999 -9999 -9999 -9999 -9999 -9999 -9999 -9999 -9999 -9999 -9999 -9999 -9999 -9999 -9999 -9999 -9999 -9999 -9999 -9999 -9999 -9999 -9999 -9999 -9999 -9999 -9999 -9999 -9999 -9999 142 152 145 140 127 110 95 98 123 123 91 101 111 112 113 111 110 112 107 85 77 80 101 116 128 137 136 132 131 135 127 140 138 132 129 119 122 124 113 107 111 115 126 121 107 123 126 121 116 116 113 111 102 99 102 95 82 80 74 70 64 74 70 71 68 67 65 69 70 67 66 63 55 44 43 40 42 48 50 49 52 46 49 53 48 -9999 -9999 -9999 -9999 -9999 -9999 -9999 -9999
-9999 -9999 -9999 -9999 -9999 -9999 -9999 -9999 -9999 -9999 -9999 -9999 -9999 -9999 -9999 -9999 -9999 -9999 -9999 -9999 -9999 -9999 -9999 -9999 -9999 -9999 -9999 -9999 -9999 -9999 -9999 -9999 -9999 -9999 -9999 -9999 -9999 -9999 -9999 -9999 -9999 -9999 -9999 -9999 -9999 -9999 -9999 -9999 -9999 -9999 -9999 -9999 -9999 -9999 -9999 -9999 -9999 -9999 -9999 -9999 -9999 -9999 -9999 -9999 -9999 -9999 -9999 -9999 -9999 -9999 -9999 -9999 -9999 -9999 -9999 146 145 149 145 138 127 114 97 100 116 106 94 113 127 118 105 114 120 120 99 80 78 87 104 114 128 136 136 139 140 130 121 142 138 128 123 118 111 112 117 116 121 128 133 123 118 129 129 127 131 119 122 121 111 101 98 91 84 85 78 69 72 77 76 82 76 70 64 63 64 65 62 61 50 49 49 52 46 49 53 54 54 49 48 51 53 -9999 -9999 -9999 -9999 -9999 -9999 -9999 -9999
-9999 -9999 -9999 -9999 -9999 -9999 -9999 -9999 -9999 -9999 -9999 -9999 -9999 -9999 -9999 -9999 -9999 -9999 -9999 -9999 -9999 -9999 -9999 -9999 -9999 -9999 -9999 -9999 -9999 -9999 -9999 -9999 -9999 -9999 -9999 -9999 -9999 -9999 -9999 -9999 -9999 -9999 -9999 -9999 -9999 -9999 -9999 -9999 -9999 -9999 -9999 -9999 -9999 -9999 -9999 -9999 -9999 -9999 -9999 -9999 -9999 -9999 -9999 -9999 -9999 -9999 -9999 -9999 -9999 -9999 -9999 -9999 -9999 -9999 -9999 156 149 153 148 137 114 100 101 115 115 102 116 126 124 115 118 123 122 109 95 80 81 90 102 107 121 139 144 141 136 114 115 144 133 129 127 121 119 129 131 125 126 135 134 133 135 136 133 132 127 126 128 125 117 107 104 96 90 93 87 81 84 85 83 88 77 67 72 69 66 62 64 65 46 42 46 50 48 47 57 51 50 52 52 45 50 -9999 -9999 -9999 -9999 -9999 -9999 -9999 -9999
-9999 -9999 -9999 -9999 -9999 -9999 -9999 -9999 -9999 -9999 -9999 -9999 -9999 -9999 -9999 -9999 -9999 -9999 -9999 -9999 -9999 -9999 -9999 -9999 -9999 -9999 -9999 -9999 -9999 -9999 -9999 -9999 -9999 -9999 -9999 -9999 -9999 -9999 -9999 -9999 -9999 -9999 -9999 -9999 -9999 -9999 -9999 -9999 -9999 -9999 -9999 -9999 -9999 -9999 -9999 -9999 -9999 -9999 -9999 -9999 -9999 -9999 -9999 -9999 -9999 -9999 -9999 -9999 -9999 -9999 -9999 -9999 -9999 -9999 -9999 161 150 153 151 142 115 103 123 127 117 109 127 119 118 128 130 128 112 99 101 92 77 88 104 108 113 127 145 140 137 124 121 133 128 122 116 110 122 147 144 125 128 137 140 141 145 141 140 137 131 134 132 132 121 118 112 109 103 93 82 85 98 98 98 97 94 83 74 69 66 69 65 65 58 45 52 51 48 55 59 55 51 47 57 57 50 -9999 -9999 -9999 -9999 -9999 -9999 -9999 -9999
-9999 -9999 -9999 -9999 -9999 -9999 -9999 -9999 -9999 -9999 -9999 -9999 -9999 -9999 -9999 -9999 -9999 -9999 -9999 -9999 -9999 -9999 -9999 -9999 -9999 -9999 -9999 -9999 -9999 -9999 -9999 -9999 -9999 -9999 -9999 -9999 -9999 -9999 -9999 -9999 -9999 -9999 -9999 -9999 -9999 -9999 -9999 -9999 -9999 -9999 -9999 -9999 -9999 -9999 -9999 -9999 -9999 -9999 -9999 -9999 -9999 -9999 -9999 -9999 -9999 -9999 -9999 -9999 -9999 -9999 -9999 -9999 -9999 -9999 -9999 164 162 156 145 138 120 109 125 131 118 114 134 121 121 128 134 126 117 109 112 93 79 93 105 117 120 121 132 138 148 139 134 130 132 134 125 112 113 130 145 138 131 135 140 143 143 144 142 143 139 130 130 132 130 126 116 103 96 90 94 98 101 98 95 97 91 80 72 72 74 76 73 68 55 44 52 48 50 54 49 53 52 52 56 58 -9999 -9999 -9999 -9999 -9999 -9999 -9999 -9999 -9999
-9999 -9999 -9999 -9999 -9999 -9999 -9999 -9999 -9999 -9999 -9999 -9999 -9999 -9999 -9999 -9999 -9999 -9999 -9999 -9999 -9999 -9999 -9999 -9999 -9999 -9999 -9999 -9999 -9999 -9999 -9999 -9999 -9999 -9999 -9999 -9999 -9999 -9999 -9999 -9999 -9999 -9999 -9999 -9999 -9999 -9999 -9999 -9999 -9999 -9999 -9999 -9999 -9999 -9999 -9999 -9999 -9999 -9999 -9999 -9999 -9999 -9999 -9999 -9999 -9999 -9999 -9999 -9999 -9999 -9999 -9999 -9999 -9999 -9999 164 159 154 142 135 131 111 107 123 119 118 128 126 120 131 135 130 113 119 113 103 80 86 93 100 114 128 124 122 139 153 141 141 137 129 136 128 122 121 128 141 137 136 141 141 141 136 138 137 135 135 132 135 135 136 128 110 98 99 106 108 107 105 93 87 87 84 83 79 77 76 81 79 59 47 49 45 47 47 49 48 48 49 50 53 56 -9999 -9999 -9999 -9999 -9999 -9999 -9999 -9999 -9999
-9999 -9999 -9999 -9999 -9999 -9999 -9999 -9999 -9999 -9999 -9999 -9999 -9999 -9999 -9999 -9999 -9999 -9999 -9999 -9999 -9999 -9999 -9999 -9999 -9999 -9999 -9999 -9999 -9999 -9999 -9999 -9999 -9999 -9999 -9999 -9999 -9999 -9999 -9999 -9999 -9999 -9999 -9999 -9999 -9999 -9999 -9999 -9999 -9999 -9999 -9999 -9999 -9999 -9999 -9999 -9999 -9999 -9999 -9999 -9999 -9999 -9999 -9999 -9999 -9999 -9999 -9999 -9999 -9999 -9999 -9999 -9999 -9999 -9999 163 151 143 129 116 108 103 110 116 117 128 142 124 123 131 136 122 113 113 106 85 81 111 95 93 97 110 120 129 151 151 139 139 147 129 124 115 120 126 132 134 145 147 143 143 137 129 131 134 132 131 132 138 139 140 125 104 99 108 111 106 99 94 86 91 91 89 91 81 78 82 83 69 57 54 49 45 45 48 53 49 48 56 56 60 59 -9999 -9999 -9999 -9999 -9999 -9999 -9999 -9999 -9999
-9999 -9999 -9999 -9999 -9999 -9999 -9999 -9999 -9999 -9999 -9999 -9999 -9999 -9999 -9999 -9999 -9999 -9999 -9999 -9999 -9999 -9999 -9999 -9999 -9999 -9999 -9999 -9999 -9999 -9999 -9999 -9999 -9999 -9999 -9999 -9999 -9999 -9999 -9999 -9999 -9999 -9999 -9999 -9999 -9999 -9999 -9999 -9999 -9999 -9999 -9999 -9999 -9999 -9999 -9999 -9999 -9999 -9999 -9999 -9999 -9999 -9999 -9999 -9999 -9999 -9999 -9999 -9999 -9999 -9999 -9999 -9999 -9999 -9999 133 126 122 117 112 115 112 105 113 119 136 135 124 133 137 128 118 121 109 96 85 95 120 102 96 95 103 120 133 152 154 157 155 158 137 128 124 129 131 139 142 148 141 132 134 134 131 124 124 130 129 131 136 138 137 113 105 109 111 109 101 96 100 93 97 101 97 88 85 84 84 78 73 65 52 50 46 48 53 53 51 55 61 59 55 56 -9999 -9999 -9999 -9999 -9999 -9999 -9999 -9999 -9999
-9999 -9999 -9999 -9999 -9999 -9999 -9999 -9999 -9999 -9999 -9999 -9999 -9999 -9999 -9999 -9999 -9999 -9999 -9999 -9999 -9999 -9999 -9999 -9999 -9999 -9999 -9999 -9999 -9999 -9999 -9999 -9999 -9999 -9999 -9999 -9999 -9999 -9999 -9999 -9999 -9999 -9999 -9999 -9999 -9999 -9999 -9999 -9999 -9999 -9999 -9999 -9999 -9999 -9999 -9999 -9999 -9999 -9999 -9999 -9999 -9999 -9999 -9999 -9999 -9999 -9999 -9999 -9999 -9999 -9999 -9999 -9999 -9999 -9999 121 126 130 122 132 128 115 119 134 136 138 126 124 133 133 123 123 115 100 107 116 124 136 140 144 121 114 126 140 161 164 163 146 141 133 129 132 135 131 133 141 147 143 143 133 127 125 126 133 131 133 132 128 129 127 103 111 120 120 110 100 100 102 95 100 102 99 101 99 91 85 73 72 62 51 48 49 48 56 55 50 54 55 52 57 60 -9999 -9999 -9999 -9999 -9999 -9999 -9999 -9999 -9999
-9999 -9999 -9999 -9999 -9999 -9999 -9999 -9999 -9999 -9999 -9999 -9999 -9999 -9999 -9999 -9999 -9999 -9999 -9999 -9999 -9999 -9999 -9999 -9999 -9999 -9999 -9999 -9999 -9999 -9999 -9999 -9999 -9999 -9999 -9999 -9999 -9999 -9999 -9999 -9999 -9999 -9999 -9999 -9999 -9999 -9999 -9999 -9999 -9999 -9999 -9999 -9999 -9999 -9999 -9999 -9999 -9999 -9999 -9999 -9999 -9999 -9999 -9999 -9999 -9999 -9999 -9999 -9999 -9999 -9999 -9999 -9999 -9999 -9999 124 133 145 137 138 127 121 131 149 142 141 145 136 123 123 122 109 109 122 129 139 140 138 149 153 122 118 146 152 161 157 147 141 135 134 134 135 135 131 137 143 150 148 146 148 137 126 138 143 138 137 140 132 124 120 109 116 120 116 108 102 113 107 106 107 106 108 105 97 83 73 69 79 75 63 52 53 52 54 53 51 48 50 55 64 -9999 -9999 -9999 -9999 -9999 -9999 -9999 -9999 -9999 -9999
-9999 -9999 -9999 -9999 -9999 -9999 -9999 -9999 -9999 -9999 -9999 -9999 -9999 -9999 -9999 -9999 -9999 -9999 -9999 -9999 -9999 -9999 -9999 -9999 -9999 -9999 -9999 -9999 -9999 -9999 -9999 -9999 -9999 -9999 -9999 -9999 -9999 -9999 -9999 -9999 -9999 -9999 -9999 -9999 -9999 -9999 -9999 -9999 -9999 -9999 -9999 -9999 -9999 -9999 -9999 -9999 -9999 -9999 -9999 -9999 -9999 -9999 -9999 -9999 -9999 -9999 -9999 -9999 -9999 -9999 -9999 -9999 -9999 139 127 135 135 133 135 133 120 136 144 148 146 149 137 125 128 123 115 124 126 135 143 154 150 153 150 120 120 160 173 168 162 151 150 141 142 136 138 140 134 139 152 153 149 142 142 141 139 144 140 134 139 141 132 132 132 113 124 120 116 110 109 115 111 114 113 110 112 106 90 77 78 81 88 84 81 60 54 55 54 55 58 62 73 66 60 -9999 -9999 -9999 -9999 -9999 -9999 -9999 -9999 -9999 -9999
-9999 -9999 -9999 -9999 -9999 -9999 -9999 -9999 -9999 -9999 -9999 -9999 -9999 -9999 -9999 -9999 -9999 -9999 -9999 -9999 -9999 -9999 -9999 -9999 -9999 -9999 -9999 -9999 -9999 -9999 -9999 -9999 -9999 -9999 -9999 -9999 -9999 -9999 -9999 -9999 -9999 -9999 -9999 -9999 -9999 -9999 -9999 -9999 -9999 -9999 -9999 -9999 -9999 -9999 -9999 -9999 -9999 -9999 -9999 -9999 -9999 -9999 -9999 -9999 -9999 -9999 -9999 -9999 -9999 -9999 -9999 -9999 -9999 132 130 130 135 146 153 128 118 145 148 145 143 138 127 124 122 115 122 127 124 137 136 150 154 155 146 125 118 153 173 169 167 164 154 153 150 138 133 135 136 132 148 154 153 151 146 154 144 140 140 137 139 140 137 137 131 118 123 123 119 109 110 119 117 117 114 110 108 98 80 81 94 89 87 84 84 68 52 53 57 65 66 73 80 77 71 -9999 -9999 -9999 -9999 -9999 -9999 -9999 -9999 -9999 -9999
-9999 -9999 -9999 -9999 -9999 -9999 -9999 -9999 -9999 -9999 -9999 -9999 -9999 -9999 -9999 -9999 -9999 -9999 -9999 -9999 -9999 -9999 -9999 -9999 -9999 -9999 -9999 -9999 -9999 -9999 -9999 -9999 -9999 -9999 -9999 -9999 -9999 -9999 -9999 -9999 -9999 -9999 -9999 -9999 -9999 -9999 -9999 -9999 -9999 -9999 -9999 -9999 -9999 -9999 -9999 -9999 -9999 -9999 -9999 -9999 -9999 -9999 -9999 -9999 -9999 -9999 -9999 -9999 -9999 -9999 -9999 -9999 -9999 138 133 134 142 157 153 128 120 149 153 145 137 128 130 124 125 124 134 129 140 150 142 144 150 150 133 122 118 136 170 170 169 166 161 162 140 133 140 152 143 134 150 160 157 156 160 159 147 143 143 142 138 138 134 133 131 117 125 128 118 114 115 118 118 111 105 101 88 82 81 89 92 82 67 66 60 58 45 51 61 71 73 72 73 76 59 -9999 -9999 -9999 -9999 -9999 -9999 -9999 -9999 -9999 -9999
-9999 -9999 -9999 -9999 -9999 -9999 -9999 -9999 -9999 -9999 -9999 -9999 -9999 -9999 -9999 -9999 -9999 -9999 -9999 -9999 -9999 -9999 -9999 -9999 -9999 -9999 -9999 -9999 -9999 -9999 -9999 -9999 -9999 -9999 -9999 -9999 -9999 -9999 -9999 -9999 -9999 -9999 -9999 -9999 -9999 -9999 -9999 -9999 -9999 -9999 -9999 -9999 -9999 -9999 -9999 -9999 -9999 -9999 -9999 -9999 -9999 -9999 -9999 -9999 -9999 -9999 -9999 -9999 -9999 -9999 -9999 -9999 -9999 141 142 141 148 149 141 122 119 143 143 139 132 130 133 121 137 125 132 140 140 146 149 147 147 137 120 122 131 148 160 171 172 172 164 155 144 153 152 160 146 134 157 166 164 162 161 153 149 148 144 138 137 135 135 136 133 117 121 128 120 116 120 121 122 113 97 100 93 83 94 97 94 69 57 53 56 59 54 69 67 67 72 72 74 76 -9999 -9999 -9999 -9999 -9999 -9999 -9999 -9999 -9999 -9999 -9999
-9999 -9999 -9999 -9999 -9999 -9999 -9999 -9999 -9999 -9999 -9999 -9999 -9999 -9999 -9999 -9999 -9999 -9999 -9999 -9999 -9999 -9999 -9999 -9999 -9999 -9999 -9999 -9999 -9999 -9999 -9999 -9999 -9999 -9999 -9999 -9999 -9999 -9999 -9999 -9999 -9999 -9999 -9999 -9999 -9999 -9999 -9999 -9999 -9999 -9999 -9999 -9999 -9999 -9999 -9999 -9999 -9999 -9999 -9999 -9999 -9999 -9999 -9999 -9999 -9999 -9999 -9999 -9999 -9999 -9999 -9999 -9999 151 154 148 148 152 158 144 119 128 133 142 141 132 138 133 126 131 120 133 144 139 137 144 155 151 137 130 139 158 163 157 166 164 162 151 148 159 161 158 158 152 147 155 162 166 165 164 161 151 140 137 135 140 141 131 130 130 128 119 127 126 124 126 123 116 104 106 112 93 107 106 106 105 84 63 60 63 65 70 70 64 69 68 68 71 66 -9999 -9999 -9999 -9999 -9999 -9999 -9999 -9999 -9999 -9999 -9999
-9999 -9999 -9999 -9999 -9999 -9999 -9999 -9999 -9999 -9999 -9999 -9999 -9999 -9999 -9999 -9999 -9999 -9999 -9999 -9999 -9999 -9999 -9999 -9999 -9999 -9999 -9999 -9999 -9999 -9999 -9999 -9999 -9999 -9999 -9999 -9999 -9999 -9999 -9999 -9999 -9999 -9999 -9999 -9999 -9999 -9999 -9999 -9999 -9999 -9999 -9999 -9999 -9999 -9999 -9999 -9999 -9999 -9999 -9999 -9999 -9999 -9999 -9999 -9999 -9999 -9999 -9999 -9999 -9999 -9999 -9999 -9999 155 157 151 167 164 158 140 128 144 142 139 140 140 134 126 127 128 124 144 140 139 147 152 170 162 146 135 158 170 163 169 173 169 163 154 153 168 168 167 172 166 168 167 160 163 169 162 160 149 145 137 129 127 130 127 131 130 130 119 125 128 124 127 118 116 107 111 115 100 108 112 107 96 72 63 65 72 73 75 75 69 75 67 68 71 70 -9999 -9999 -9999 -9999 -9999 -9999 -9999 -9999 -9999 -9999 -9999
-9999 -9999 -9999 -9999 -9999 -9999 -9999 -9999 -9999 -9999 -9999 -9999 -9999 -9999 -9999 -9999 -9999 -9999 -9999 -9999 -9999 -9999 -9999 -9999 -9999 -9999 -9999 -9999 -9999 -9999 -9999 -9999 -9999 -9999 -9999 -9999 -9999 -9999 -9999 -9999 -9999 -9999 -9999 -9999 -9999 -9999 -9999 -9999 -9999 -9999 -9999 -9999 -9999 -9999 -9999 -9999 -9999 -9999 -9999 -9999 -9999 -9999 -9999 -9999 -9999 -9999 -9999 -9999 -9999 -9999 -9999 -9999 165 162 156 160 161 146 141 149 156 148 153 151 150 140 124 129 131 122 133 147 146 156 161 176 162 137 160 175 180 175 177 170 172 167 169 167 176 176 169 167 168 169 168 165 167 163 157 156 158 157 141 135 126 128 133 126 118 118 120 121 119 122 124 116 109 120 123 119 101 107 117 111 94 63 60 70 76 70 66 79 80 75 66 69 74 79 -9999 -9999 -9999 -9999 -9999 -9999 -9999 -9999 -9999 -9999 -9999
-9999 -9999 -9999 -9999 -9999 -9999 -9999 -9999 -9999 -9999 -9999 -9999 -9999 -9999 -9999 -9999 -9999 -9999 -9999 -9999 -9999 -9999 -9999 -9999 -9999 -9999 -9999 -9999 -9999 -9999 -9999 -9999 -9999 -9999 -9999 -9999 -9999 -9999 -9999 -9999 -9999 -9999 -9999 -9999 -9999 -9999 -9999 -9999 -9999 -9999 -9999 -9999 -9999 -9999 -9999 -9999 -9999 -9999 -9999 -9999 -9999 -9999 -9999 -9999 -9999 -9999 -9999 -9999 -9999 -9999 -9999 -9999 162 161 161 162 154 142 154 153 147 149 155 159 161 151 128 138 138 126 135 152 146 152 169 177 154 137 185 194 190 179 181 186 185 176 179 177 176 176 171 172 171 168 170 167 167 157 147 139 132 137 127 127 132 147 149 134 121 127 125 125 124 120 117 116 118 122 122 117 111 112 119 114 87 65 65 73 78 68 65 77 84 70 65 74 75 73 -9999 -9999 -9999 -9999 -9999 -9999 -9999 -9999 -9999 -9999 -9999
-9999 -9999 -9999 -9999 -9999 -9999 -9999 -9999 -9999 -9999 -9999 -9999 -9999 -9999 -9999 -9999 -9999 -9999 -9999 -9999 -9999 -9999 -9999 -9999 -9999 -9999 -9999 -9999 -9999 -9999 -9999 -9999 -9999 -9999 -9999 -9999 -9999 -9999 -9999 -9999 -9999 -9999 -9999 -9999 -9999 -9999 -9999 -9999 -9999 -9999 -9999 -9999 -9999 -9999 -9999 -9999 -9999 -9999 -9999 -9999 -9999 -9999 -9999 -9999 -9999 -9999 -9999 -9999 -9999 -9999 -9999 163 154 158 171 158 144 165 164 151 158 161 166 171 165 153 138 155 153 139 147 152 150 154 157 158 146 134 189 199 191 185 190 191 183 178 182 183 182 177 178 176 174 173 168 160 159 149 137 132 134 131 126 135 146 147 149 143 134 138 131 132 125 116 112 126 124 125 119 118 120 112 119 107 79 69 76 75 67 66 69 85 84 65 66 66 70 -9999 -9999 -9999 -9999 -9999 -9999 -9999 -9999 -9999 -9999 -9999 -9999
-9999 -9999 -9999 -9999 -9999 -9999 -9999 -9999 -9999 -9999 -9999 -9999 -9999 -9999 -9999 -9999 -9999 -9999 -9999 -9999 -9999 -9999 -9999 -9999 -9999 -9999 -9999 -9999 -9999 -9999 -9999 -9999 -9999 -9999 -9999 -9999 -9999 -9999 -9999 -9999 -9999 -9999 -9999 -9999 -9999 -9999 -9999 -9999 -9999 -9999 -9999 -9999 -9999 -9999 -9999 -9999 -9999 -9999 -9999 -9999 -9999 -9999 -9999 -9999 -9999 -9999 -9999 -9999 -9999 -9999 -9999 173 169 161 161 144 155 175 172 165 174 182 180 178 170 160 146 163 157 149 152 154 158 161 179 172 143 126 180 194 200 192 195 199 198 193 192 184 178 174 174 171 170 167 169 163 156 140 134 134 136 136 141 142 147 146 148 146 143 146 138 130 123 120 122 124 125 127 127 119 119 114 112 98 75 65 76 76 75 80 73 81 67 59 58 68 74 -9999 -9999 -9999 -9999 -9999 -9999 -9999 -9999 -9999 -9999 -9999 -9999
-9999 -9999 -9999 -9999 -9999 -9999 -9999 -9999 -9999 -9999 -9999 -9999 -9999 -9999 -9999 -9999 -9999 -9999 -9999 -9999 -9999 -9999 -9999 -9999 -9999 -9999 -9999 -9999 -9999 -9999 -9999 -9999 -9999 -9999 -9999 -9999 -9999 -9999 -9999 -9999 -9999 -9999 -9999 -9999 -9999 -9999 -9999 -9999 -9999 -9999 -9999 -9999 -9999 -9999 -9999 -9999 -9999 -9999 -9999 -9999 -9999 -9999 -9999 -9999 -9999 -9999 -9999 -9999 -9999 -9999 -9999 176 170 158 150 162 181 182 182 178 183 186 186 178 180 175 160 167 166 156 154 160 160 160 161 155 144 154 172 202 203 197 199 202 195 189 184 181 178 170 161 156 151 149 153 155 157 138 139 139 146 151 152 148 146 141 146 141 142 138 130 127 128 127 129 130 126 132 129 123 122 106 92 83 75 75 76 77 77 74 69 75 67 70 73 76 79 -9999 -9999 -9999 -9999 -9999 -9999 -9999 -9999 -9999 -9999 -9999 -9999
-9999 -9999 -9999 -9999 -9999 -9999 -9999 -9999 -9999 -9999 -9999 -9999 -9999 -9999 -9999 -9999 -9999 -9999 -9999 -9999 -9999 -9999 -9999 -9999 -9999 -9999 -9999 -9999 -9999 -9999 -9999 -9999 -9999 -9999 -9999 -9999 -9999 -9999 -9999 -9999 -9999 -9999 -9999 -9999 -9999 -9999 -9999 -9999 -9999 -9999 -9999 -9999 -9999 -9999 -9999 -9999 -9999 -9999 -9999 -9999 -9999 -9999 -9999 -9999 -9999 -9999 -9999 -9999 -9999 -9999 -9999 190 175 160 159 171 177 184 174 180 187 189 184 175 175 168 165 165 162 172 179 167 166 164 152 148 151 175 189 203 203 199 201 197 192 190 177 170 170 157 148 153 153 152 150 146 144 142 149 151 152 153 153 152 147 142 144 139 133 135 132 131 129 131 129 126 125 132 127 124 125 96 81 80 78 79 84 82 78 77 82 75 73 76 78 78 84 -9999 -9999 -9999 -9999 -9999 -9999 -9999 -9999 -9999 -9999 -9999 -9999
-9999 -9999 -9999 -9999 -9999 -9999 -9999 -9999 -9999 -9999 -9999 -9999 -9999 -9999 -9999 -9999 -9999 -9999 -9999 -9999 -9999 -9999 -9999 -9999 -9999 -9999 -9999 -9999 -9999 -9999 -9999 -9999 -9999 -9999 -9999 -9999 -9999 -9999 -9999 -9999 -9999 -9999 -9999 -9999 -9999 -9999 -9999 -9999 -9999 -9999 -9999 -9999 -9999 -9999 -9999 -9999 -9999 -9999 -9999 -9999 -9999 -9999 -9999 -9999 -9999 -9999 -9999 -9999 -9999 -9999 184 177 163 161 161 169 166 172 180 183 192 194 194 177 174 168 160 160 163 180 180 169 169 170 163 151 152 175 197 205 210 197 195 191 193 191 184 169 173 155 152 157 164 164 156 149 153 157 166 159 155 153 151 147 144 141 139 138 137 142 139 138 131 131 126 131 129 128 125 121 123 91 80 86 86 92 95 96 96 87 82 87 73 73 81 78 -9999 -9999 -9999 -9999 -9999 -9999 -9999 -9999 -9999 -9999 -9999 -9999 -9999
-9999 -9999 -9999 -9999 -9999 -9999 -9999 -9999 -9999 -9999 -9999 -9999 -9999 -9999 -9999 -9999 -9999 -9999 -9999 -9999 -9999 -9999 -9999 -9999 -9999 -9999 -9999 -9999 -9999 -9999 -9999 -9999 -9999 -9999 -9999 -9999 -9999 -9999 -9999 -9999 -9999 -9999 -9999 -9999 -9999 -9999 -9999 -9999 -9999 -9999 -9999 -9999 -9999 -9999 -9999 -9999 -9999 -9999 -9999 -9999 -9999 -9999 -9999 -9999 -9999 -9999 -9999 -9999 -9999 -9999 176 169 177 188 175 173 170 170 166 175 185 186 188 176 172 162 160 165 167 183 179 173 182 191 174 154 146 149 171 216 214 208 195 191 187 182 178 166 173 156 164 164 156 145 144 147 151 162 171 167 159 153 154 153 151 148 142 137 140 145 142 139 131 138 134 129 122 116 111 109 112 84 82 91 91 103 106 110 106 92 83 91 83 81 83 76 -9999 -9999 -9999 -9999 -9999 -9999 -9999 -9999 -9999 -9999 -9999 -9999 -9999
-9999 -9999 -9999 -9999 -9999 -9999 -9999 -9999 -9999 -9999 -9999 -9999 -9999 -9999 -9999 -9999 -9999 -9999 -9999 -9999 -9999 -9999 -9999 -9999 -9999 -9999 -9999 -9999 -9999 -9999 -9999 -9999 -9999 -9999 -9999 -9999 -9999 -9999 -9999 -9999 -9999 -9999 -9999 -9999 -9999 -9999 -9999 -9999 -9999 -9999 -9999 -9999 -9999 -9999 -9999 -9999 -9999 -9999 -9999 -9999 -9999 -9999 -9999 -9999 -9999 -9999 -9999 -9999 -9999 -9999 166 167 186 190 180 190 186 166 187 183 177 182 182 176 164 163 168 167 167 183 183 178 180 186 167 149 146 149 154 213 216 217 206 192 187 186 177 172 170 164 158 151 146 146 145 152 161 175 177 180 170 164 162 160 151 150 146 146 146 144 143 138 134 134 132 127 128 120 112 98 85 80 84 87 99 107 112 109 106 97 87 88 82 88 82 76 -9999 -9999 -9999 -9999 -9999 -9999 -9999 -9999 -9999 -9999 -9999 -9999 -9999
-9999 -9999 -9999 -9999 -9999 -9999 -9999 -9999 -9999 -9999 -9999 -9999 -9999 -9999 -9999 -9999 -9999 -9999 -9999 -9999 -9999 -9999 -9999 -9999 -9999 -9999 -9999 -9999 -9999 -9999 -9999 -9999 -9999 -9999 -9999 -9999 -9999 -9999 -9999 -9999 -9999 -9999 -9999 -9999 -9999 -9999 -9999 -9999 -9999 -9999 -9999 -9999 -9999 -9999 -9999 -9999 -9999 -9999 -9999 -9999 -9999 -9999 -9999 -9999 -9999 -9999 -9999 -9999 -9999 -9999 167 172 184 184 183 186 183 176 198 191 176 177 182 183 171 176 175 168 175 177 184 195 188 179 159 144 143 152 182 210 214 214 214 201 192 180 175 171 175 172 165 161 150 149 160 158 164 173 175 181 176 168 162 157 157 152 144 142 143 146 142 132 119 121 126 127 113 101 94 87 85 88 91 90 110 111 111 101 99 101 98 86 77 79 80 79 -9999 -9999 -9999 -9999 -9999 -9999 -9999 -9999 -9999 -9999 -9999 -9999 -9999
-9999 -9999 -9999 -9999 -9999 -9999 -9999 -9999 -9999 -9999 -9999 -9999 -9999 -9999 -9999 -9999 -9999 -9999 -9999 -9999 -9999 -9999 -9999 -9999 -9999 -9999 -9999 -9999 -9999 -9999 -9999 -9999 -9999 -9999 -9999 -9999 -9999 -9999 -9999 -9999 -9999 -9999 -9999 -9999 -9999 -9999 -9999 -9999 -9999 -9999 -9999 -9999 -9999 -9999 -9999 -9999 -9999 -9999 -9999 -9999 -9999 -9999 -9999 -9999 -9999 -9999 -9999 -9999 -9999 -9999 168 164 175 185 180 181 182 184 204 192 183 177 182 195 184 180 182 175 180 183 190 195 186 174 150 139 139 148 179 214 213 217 217 206 189 187 190 183 180 178 170 165 168 168 170 160 163 174 181 182 182 170 157 156 151 147 151 154 147 143 143 114 96 104 108 110 95 89 93 98 115 112 102 100 107 105 105 107 110 110 96 94 88 84 84 83 -9999 -9999 -9999 -9999 -9999 -9999 -9999 -9999 -9999 -9999 -9999 -9999 -9999
-9999 -9999 -9999 -9999 -9999 -9999 -9999 -9999 -9999 -9999 -9999 -9999 -9999 -9999 -9999 -9999 -9999 -9999 -9999 -9999 -9999 -9999 -9999 -9999 -9999 -9999 -9999 -9999 -9999 -9999 -9999 -9999 -9999 -9999 -9999 -9999 -9999 -9999 -9999 -9999 -9999 -9999 -9999 -9999 -9999 -9999 -9999 -9999 -9999 -9999 -9999 -9999 -9999 -9999 -9999 -9999 -9999 -9999 -9999 -9999 -9999 -9999 -9999 -9999 -9999 -9999 -9999 -9999 -9999 175 161 160 174 182 184 190 189 191 200 190 188 185 185 186 183 186 186 180 180 193 194 196 188 181 169 156 155 161 190 215 220 221 221 202 193 201 195 186 180 175 169 168 172 168 166 163 172 176 184 189 182 165 163 157 152 146 147 155 153 146 141 100 90 94 93 99 104 108 113 130 124 121 115 111 105 106 107 101 104 99 93 103 92 91 93 -9999 -9999 -9999 -9999 -9999 -9999 -9999 -9999 -9999 -9999 -9999 -9999 -9999 -9999
-9999 -9999 -9999 -9999 -9999 -9999 -9999 -9999 -9999 -9999 -9999 -9999 -9999 -9999 -9999 -9999 -9999 -9999 -9999 -9999 -9999 -9999 -9999 -9999 -9999 -9999 -9999 -9999 -9999 -9999 -9999 -9999 -9999 -9999 -9999 -9999 -9999 -9999 -9999 -9999 -9999 -9999 -9999 -9999 -9999 -9999 -9999 -9999 -9999 -9999 -9999 -9999 -9999 -9999 -9999 -9999 -9999 -9999 -9999 -9999 -9999 -9999 -9999 -9999 -9999 -9999 -9999 -9999 -9999 181 165 164 188 187 183 205 196 205 193 191 195 196 201 188 183 188 189 182 180 197 199 202 196 186 173 163 168 184 212 229 224 220 216 199 187 200 190 192 181 180 173 173 174 174 168 167 164 172 183 191 179 169 164 160 157 163 157 137 109 99 96 91 92 103 108 122 116 121 128 129 127 126 114 109 108 110 105 108 108 100 95 99 95 94 93 -9999 -9999 -9999 -9999 -9999 -9999 -9999 -9999 -9999 -9999 -9999 -9999 -9999 -9999
-9999 -9999 -9999 -9999 -9999 -9999 -9999 -9999 -9999 -9999 -9999 -9999 -9999 -9999 -9999 -9999 -9999 -9999 -9999 -9999 -9999 -9999 -9999 -9999 -9999 -9999 -9999 -9999 -9999 -9999 -9999 -9999 -9999 -9999 -9999 -9999 -9999 -9999 -9999 -9999 -9999 -9999 -9999 -9999 -9999 -9999 -9999 -9999 -9999 -9999 -9999 -9999 -9999 -9999 -9999 -9999 -9999 -9999 -9999 -9999 -9999 -9999 -9999 -9999 -9999 -9999 -9999 -9999 -9999 188 179 173 188 182 183 198 207 219 197 208 201 194 192 185 188 187 188 190 192 201 210 209 200 201 181 170 181 210 234 230 223 223 216 213 203 209 201 198 189 189 175 174 174 188 184 176 199 191 191 195 189 185 178 169 172 160 143 118 100 99 99 108 110 123 116 116 113 127 141 134 132 126 115 115 118 112 105 99 95 91 92 94 91 88 85 -9999 -9999 -9999 -9999 -9999 -9999 -9999 -9999 -9999 -9999 -9999 -9999 -9999 -9999
-9999 -9999 -9999 -9999 -9999 -9999 -9999 -9999 -9999 -9999 -9999 -9999 -9999 -9999 -9999 -9999 -9999 -9999 -9999 -9999 -9999 -9999 -9999 -9999 -9999 -9999 -9999 -9999 -9999 -9999 -9999 -9999 -9999 -9999 -9999 -9999 -9999 -9999 -9999 -9999 -9999 -9999 -9999 -9999 -9999 -9999 -9999 -9999 -9999 -9999 -9999 -9999 -9999 -9999 -9999 -9999 -9999 -9999 -9999 -9999 -9999 -9999 -9999 -9999 -9999 -9999 -9999 -9999 -9999 196 186 183 183 184 192 204 219 221 211 216 201 192 197 197 195 188 190 205 205 204 212 214 215 208 185 171 181 192 204 229 224 226 226 220 210 217 215 198 189 183 174 176 177 185 197 201 203 196 197 197 196 186 174 163 150 127 111 108 103 117 127 123 116 124 125 123 123 136 141 142 139 127 117 124 128 123 112 97 89 88 92 88 90 94 91 -9999 -9999 -9999 -9999 -9999 -9999 -9999 -9999 -9999 -9999 -9999 -9999 -9999 -9999
-9999 -9999 -9999 -9999 -9999 -9999 -9999 -9999 -9999 -9999 -9999 -9999 -9999 -9999 -9999 -9999 -9999 -9999 -9999 -9999 -9999 -9999 -9999 -9999 -9999 -9999 -9999 -9999 -9999 -9999 -9999 -9999 -9999 -9999 -9999 -9999 -9999 -9999 -9999 -9999 -9999 -9999 -9999 -9999 -9999 -9999 -9999 -9999 -9999 -9999 -9999 -9999 -9999 -9999 -9999 -9999 -9999 -9999 -9999 -9999 -9999 -9999 -9999 -9999 -9999 -9999 -9999 -9999 206 197 182 185 182 198 211 211 208 210 206 198 192 190 196 197 196 187 187 203 210 212 213 218 219 201 174 162 186 220 225 225 237 234 232 229 223 219 209 204 206 192 173 180 190 193 202 204 204 204 201 194 187 167 154 143 118 95 102 112 129 145 141 125 121 119 124 137 136 137 143 142 134 120 128 130 117 116 107 98 94 95 93 93 96 102 95 -9999 -9999 -9999 -9999 -9999 -9999 -9999 -9999 -9999 -9999 -9999 -9999 -9999 -9999
-9999 -9999 -9999 -9999 -9999 -9999 -9999 -9999 -9999 -9999 -9999 -9999 -9999 -9999 -9999 -9999 -9999 -9999 -9999 -9999 -9999 -9999 -9999 -9999 -9999 -9999 -9999 -9999 -9999 -9999 -9999 -9999 -9999 -9999 -9999 -9999 -9999 -9999 -9999 -9999 -9999 -9999 -9999 -9999 -9999 -9999 -9999 -9999 -9999 -9999 -9999 -9999 -9999 -9999 -9999 -9999 -9999 -9999 -9999 -9999 -9999 -9999 -9999 -9999 -9999 -9999 -9999 -9999 206 191 191 198 190 213 219 217 211 210 194 206 191 186 190 197 193 197 203 204 214 211 214 224 228 218 186 175 199 234 230 235 243 239 233 234 227 222 211 207 201 187 197 198 208 198 198 205 205 203 199 194 181 156 147 134 125 105 117 143 152 141 141 131 132 123 124 132 138 140 143 139 127 130 125 118 106 100 101 100 98 104 102 109 104 112 -9999 -9999 -9999 -9999 -9999 -9999 -9999 -9999 -9999 -9999 -9999 -9999 -9999 -9999 -9999
-9999 -9999 -9999 -9999 -9999 -9999 -9999 -9999 -9999 -9999 -9999 -9999 -9999 -9999 -9999 -9999 -9999 -9999 -9999 -9999 -9999 -9999 -9999 -9999 -9999 -9999 -9999 -9999 -9999 -9999 -9999 -9999 -9999 -9999 -9999 -9999 -9999 -9999 -9999 -9999 -9999 -9999 -9999 -9999 -9999 -9999 -9999 -9999 -9999 -9999 -9999 -9999 -9999 -9999 -9999 -9999 -9999 -9999 -9999 -9999 -9999 -9999 -9999 -9999 -9999 -9999 -9999 -9999 203 195 199 214 208 213 227 221 222 219 205 214 202 189 190 210 207 214 216 215 212 215 211 223 227 213 184 183 199 229 238 241 244 242 237 231 219 208 200 196 188 189 214 209 208 198 195 198 202 200 191 189 180 153 147 135 128 115 125 147 156 141 152 134 135 132 138 141 145 138 132 129 137 140 124 116 112 103 105 101 98 112 115 117 115 117 -9999 -9999 -9999 -9999 -9999 -9999 -9999 -9999 -9999 -9999 -9999 -9999 -9999 -9999 -9999
-9999 -9999 -9999 -9999 -9999 -9999 -9999 -9999 -9999 -9999 -9999 -9999 -9999 -9999 -9999 -9999 -9999 -9999 -9999 -9999 -9999 -9999 -9999 -9999 -9999 -9999 -9999 -9999 -9999 -9999 -9999 -9999 -9999 -9999 -9999 -9999 -9999 -9999 -9999 -9999 -9999 -9999 -9999 -9999 -9999 -9999 -9999 -9999 -9999 -9999 -9999 -9999 -9999 -9999 -9999 -9999 -9999 -9999 -9999 -9999 -9999 -9999 -9999 -9999 -9999 -9999 -9999 -9999 203 205 209 221 218 211 223 229 225 228 216 200 196 195 204 210 209 219 220 216 215 231 218 231 230 211 181 183 202 230 240 244 234 243 240 229 212 207 203 194 192 198 212 215 207 202 202 194 196 201 185 169 157 140 137 129 115 115 135 163 161 152 153 139 139 147 146 137 135 129 128 142 148 138 119 116 117 104 107 104 103 115 115 114 118 115 -9999 -9999 -9999 -9999 -9999 -9999 -9999 -9999 -9999 -9999 -9999 -9999 -9999 -9999 -9999
-9999 -9999 -9999 -9999 -9999 -9999 -9999 -9999 -9999 -9999 -9999 -9999 -9999 -9999 -9999 -9999 -9999 -9999 -9999 -9999 -9999 -9999 -9999 -9999 -9999 -9999 -9999 -9999 -9999 -9999 -9999 -9999 -9999 -9999 -9999 -9999 -9999 -9999 -9999 -9999 -9999 -9999 -9999 -9999 -9999 -9999 -9999 -9999 -9999 -9999 -9999 -9999 -9999 -9999 -9999 -9999 -9999 -9999 -9999 -9999 -9999 -9999 -9999 -9999 -9999 -9999 -9999 216 213 215 213 212 211 209 228 243 238 230 210 214 206 204 219 213 212 224 223 217 219 224 219 231 230 206 188 192 206 230 243 242 233 242 239 226 214 213 207 211 210 210 217 211 208 209 203 199 197 197 187 166 149 133 121 121 111 128 164 175 169 159 149 152 147 144 136 138 139 134 135 153 147 135 114 114 109 104 108 103 104 109 111 102 99 106 -9999 -9999 -9999 -9999 -9999 -9999 -9999 -9999 -9999 -9999 -9999 -9999 -9999 -9999 -9999
-9999 -9999 -9999 -9999 -9999 -9999 -9999 -9999 -9999 -9999 -9999 -9999 -9999 -9999 -9999 -9999 -9999 -9999 -9999 -9999 -9999 -9999 -9999 -9999 -9999 -9999 -9999 -9999 -9999 -9999 -9999 -9999 -9999 -9999 -9999 -9999 -9999 -9999 -9999 -9999 -9999 -9999 -9999 -9999 -9999 -9999 -9999 -9999 -9999 -9999 -9999 -9999 -9999 -9999 -9999 -9999 -9999 -9999 -9999 -9999 -9999 -9999 -9999 -9999 -9999 -9999 -9999 221 216 215 217 219 211 211 220 225 237 235 213 232 230 230 232 218 213 218 216 219 221 224 224 230 230 199 187 206 217 222 238 243 239 236 232 224 216 219 211 219 213 211 214 210 209 206 194 193 189 189 192 173 150 126 114 115 111 138 178 184 170 160 160 155 141 136 147 159 153 145 145 152 144 129 123 125 109 110 111 112 111 115 105 107 104 -9999 -9999 -9999 -9999 -9999 -9999 -9999 -9999 -9999 -9999 -9999 -9999 -9999 -9999 -9999 -9999
-9999 -9999 -9999 -9999 -9999 -9999 -9999 -9999 -9999 -9999 -9999 -9999 -9999 -9999 -9999 -9999 -9999 -9999 -9999 -9999 -9999 -9999 -9999 -9999 -9999 -9999 -9999 -9999 -9999 -9999 -9999 -9999 -9999 -9999 -9999 -9999 -9999 -9999 -9999 -9999 -9999 -9999 -9999 -9999 -9999 -9999 -9999 -9999 -9999 -9999 -9999 -9999 -9999 -9999 -9999 -9999 -9999 -9999 -9999 -9999 -9999 -9999 -9999 -9999 -9999 -9999 -9999 231 229 217 219 219 211 213 222 226 229 235 223 227 233 243 237 224 221 233 224 218 220 232 229 226 220 202 184 211 237 236 244 252 241 244 237 225 222 216 215 217 216 217 213 212 216 206 183 162 159 173 176 154 143 128 126 145 142 161 186 180 165 163 162 150 146 145 163 169 162 146 151 145 137 136 139 124 112 117 114 114 125 123 110 97 94 -9999 -9999 -9999 -9999 -9999 -9999 -9999 -9999 -9999 -9999 -9999 -9999 -9999 -9999 -9999 -9999
-9999 -9999 -9999 -9999 -9999 -9999 -9999 -9999 -9999 -9999 -9999 -9999 -9999 -9999 -9999 -9999 -9999 -9999 -9999 -9999 -9999 -9999 -9999 -9999 -9999 -9999 -9999 -9999 -9999 -9999 -9999 -9999 -9999 -9999 -9999 -9999 -9999 -9999 -9999 -9999 -9999 -9999 -9999 -9999 -9999 -9999 -9999 -9999 -9999 -9999 -9999 -9999 -9999 -9999 -9999 -9999 -9999 -9999 -9999 -9999 -9999 -9999 -9999 -9999 -9999 -9999 -9999 235 240 227 232 216 214 212 216 222 233 237 223 225 244 239 234 234 237 245 233 228 225 241 221 217 208 185 185 217 251 254 251 252 240 237 233 226 222 217 223 221 220 218 216 213 205 185 163 142 143 152 154 153 150 127 141 171 173 187 183 174 166 168 167 158 167 168 168 171 161 152 149 151 158 147 138 125 131 126 121 125 124 118 113 105 101 -9999 -9999 -9999 -9999 -9999 -9999 -9999 -9999 -9999 -9999 -9999 -9999 -9999 -9999 -9999 -9999
-9999 -9999 -9999 -9999 -9999 -9999 -9999 -9999 -9999 -9999 -9999 -9999 -9999 -9999 -9999 -9999 -9999 -9999 -9999 -9999 -9999 -9999 -9999 -9999 -9999 -9999 -9999 -9999 -9999 -9999 -9999 -9999 -9999 -9999 -9999 -9999 -9999 -9999 -9999 -9999 -9999 -9999 -9999 -9999 -9999 -9999 -9999 -9999 -9999 -9999 -9999 -9999 -9999 -9999 -9999 -9999 -9999 -9999 -9999 -9999 -9999 -9999 -9999 -9999 -9999 -9999 231 237 235 229 233 224 221 225 220 224 239 226 228 243 256 243 238 242 246 246 240 250 243 245 235 232 210 186 196 219 249 254 254 250 246 244 236 233 222 221 226 227 220 219 221 212 195 174 164 153 157 165 169 174 148 123 170 182 178 177 172 168 168 170 172 167 185 191 189 182 180 180 168 155 149 138 130 128 130 126 128 129 121 120 116 106 103 -9999 -9999 -9999 -9999 -9999 -9999 -9999 -9999 -9999 -9999 -9999 -9999 -9999 -9999 -9999 -9999
-9999 -9999 -9999 -9999 -9999 -9999 -9999 -9999 -9999 -9999 -9999 -9999 -9999 -9999 -9999 -9999 -9999 -9999 -9999 -9999 -9999 -9999 -9999 -9999 -9999 -9999 -9999 -9999 -9999 -9999 -9999 -9999 -9999 -9999 -9999 -9999 -9999 -9999 -9999 -9999 -9999 -9999 -9999 -9999 -9999 -9999 -9999 -9999 -9999 -9999 -9999 -9999 -9999 -9999 -9999 -9999 -9999 -9999 -9999 -9999 -9999 -9999 -9999 -9999 -9999 -9999 233 230 223 232 229 226 229 232 232 232 231 228 236 238 258 250 240 250 258 247 256 261 254 249 245 238 214 193 197 218 237 244 249 243 246 248 243 236 224 230 231 224 220 226 224 199 188 175 159 164 178 178 182 162 133 138 186 186 177 173 175 186 182 182 180 183 184 189 184 187 183 171 168 170 167 146 133 126 120 126 131 126 110 104 102 98 102 -9999 -9999 -9999 -9999 -9999 -9999 -9999 -9999 -9999 -9999 -9999 -9999 -9999 -9999 -9999 -9999
-9999 -9999 -9999 -9999 -9999 -9999 -9999 -9999 -9999 -9999 -9999 -9999 -9999 -9999 -9999 -9999 -9999 -9999 -9999 -9999 -9999 -9999 -9999 -9999 -9999 -9999 -9999 -9999 -9999 -9999 -9999 -9999 -9999 -9999 -9999 -9999 -9999 -9999 -9999 -9999 -9999 -9999 -9999 -9999 -9999 -9999 -9999 -9999 -9999 -9999 -9999 -9999 -9999 -9999 -9999 -9999 -9999 -9999 -9999 -9999 -9999 -9999 -9999 -9999 -9999 -9999 234 230 228 246 248 223 229 242 236 237 239 224 227 242 244 242 241 252 261 252 259 263 258 255 259 246 217 196 200 210 229 239 242 250 252 259 247 229 235 236 234 228 229 225 221 203 179 161 170 195 180 162 144 138 152 188 193 188 184 172 179 190 185 188 185 181 186 191 192 181 186 186 183 173 157 144 142 142 134 132 130 126 112 108 113 107 -9999 -9999 -9999 -9999 -9999 -9999 -9999 -9999 -9999 -9999 -9999 -9999 -9999 -9999 -9999 -9999 -9999
-9999 -9999 -9999 -9999 -9999 -9999 -9999 -9999 -9999 -9999 -9999 -9999 -9999 -9999 -9999 -9999 -9999 -9999 -9999 -9999 -9999 -9999 -9999 -9999 -9999 -9999 -9999 -9999 -9999 -9999 -9999 -9999 -9999 -9999 -9999 -9999 -9999 -9999 -9999 -9999 -9999 -9999 -9999 -9999 -9999 -9999 -9999 -9999 -9999 -9999 -9999 -9999 -9999 -9999 -9999 -9999 -9999 -9999 -9999 -9999 -9999 -9999 -9999 -9999 -9999 -9999 236 235 231 246 244 225 236 257 249 248 233 224 233 242 241 244 253 252 258 250 259 260 265 261 261 240 218 204 205 216 243 250 246 247 256 256 252 234 231 235 234 230 230 226 228 182 186 207 194 176 162 145 147 158 178 195 201 188 183 174 178 200 196 199 194 184 190 195 190 188 193 188 176 171 168 159 158 146 140 132 127 126 117 114 117 110 -9999 -9999 -9999 -9999 -9999 -9999 -9999 -9999 -9999 -9999 -9999 -9999 -9999 -9999 -9999 -9999 -9999
-9999 -9999 -9999 -9999 -9999 -9999 -9999 -9999 -9999 -9999 -9999 -9999 -9999 -9999 -9999 -9999 -9999 -9999 -9999 -9999 -9999 -9999 -9999 -9999 -9999 -9999 -9999 -9999 -9999 -9999 -9999 -9999 -9999 -9999 -9999 -9999 -9999 -9999 -9999 -9999 -9999 -9999 -9999 -9999 -9999 -9999 -9999 -9999 -9999 -9999 -9999 -9999 -9999 -9999 -9999 -9999 -9999 -9999 -9999 -9999 -9999 -9999 -9999 -9999 -9999 238 239 239 236 246 245 232 243 266 261 254 243 247 243 245 240 248 248 253 254 258 267 258 263 266 232 214 211 216 211 222 246 254 254 264 255 248 238 242 245 246 239 238 231 226 221 212 197 207 188 169 162 146 166 185 196 194 200 188 181 181 184 198 201 200 198 185 187 188 188 193 189 184 181 182 177 172 164 148 135 121 122 120 117 120 122 110 -9999 -9999 -9999 -9999 -9999 -9999 -9999 -9999 -9999 -9999 -9999 -9999 -9999 -9999 -9999 -9999 -9999
-9999 -9999 -9999 -9999 -9999 -9999 -9999 -9999 -9999 -9999 -9999 -9999 -9999 -9999 -9999 -9999 -9999 -9999 -9999 -9999 -9999 -9999 -9999 -9999 -9999 -9999 -9999 -9999 -9999 -9999 -9999 -9999 -9999 -9999 -9999 -9999 -9999 -9999 -9999 -9999 -9999 -9999 -9999 -9999 -9999 -9999 -9999 -9999 -9999 -9999 -9999 -9999 -9999 -9999 -9999 -9999 -9999 -9999 -9999 -9999 -9999 -9999 -9999 -9999 -9999 245 249 242 240 250 243 238 245 258 260 255 248 249 246 253 243 253 253 257 251 253 268 269 269 271 238 219 235 227 241 259 274 276 275 264 254 247 235 243 245 245 237 236 229 220 214 208 205 202 187 169 166 150 164 193 197 202 187 189 188 189 188 195 198 198 192 188 193 193 202 203 195 181 176 176 174 161 149 135 129 128 120 109 114 114 106 105 -9999 -9999 -9999 -9999 -9999 -9999 -9999 -9999 -9999 -9999 -9999 -9999 -9999 -9999 -9999 -9999 -9999
-9999 -9999 -9999 -9999 -9999 -9999 -9999 -9999 -9999 -9999 -9999 -9999 -9999 -9999 -9999 -9999 -9999 -9999 -9999 -9999 -9999 -9999 -9999 -9999 -9999 -9999 -9999 -9999 -9999 -9999 -9999 -9999 -9999 -9999 -9999 -9999 -9999 -9999 -9999 -9999 -9999 -9999 -9999 -9999 -9999 -9999 -9999 -9999 -9999 -9999 -9999 -9999 -9999 -9999 -9999 -9999 -9999 -9999 -9999 -9999 -9999 -9999 -9999 -9999 -9999 252 257 247 243 242 242 248 254 254 252 258 250 254 255 244 242 250 262 255 248 242 267 283 278 257 229 217 232 229 243 268 280 277 270 261 251 247 251 251 248 238 236 236 230 231 231 214 205 203 198 174 157 152 179 205 202 194 192 193 187 193 195 199 199 197 193 191 201 199 204 200 189 170 162 159 158 148 145 138 132 120 112 106 106 104 102 -9999 -9999 -9999 -9999 -9999 -9999 -9999 -9999 -9999 -9999 -9999 -9999 -9999 -9999 -9999 -9999 -9999 -9999
-9999 -9999 -9999 -9999 -9999 -9999 -9999 -9999 -9999 -9999 -9999 -9999 -9999 -9999 -9999 -9999 -9999 -9999 -9999 -9999 -9999 -9999 -9999 -9999 -9999 -9999 -9999 -9999 -9999 -9999 -9999 -9999 -9999 -9999 -9999 -9999 -9999 -9999 -9999 -9999 -9999 -9999 -9999 -9999 -9999 -9999 -9999 -9999 -9999 -9999 -9999 -9999 -9999 -9999 -9999 -9999 -9999 -9999 -9999 -9999 -9999 -9999 -9999 -9999 -9999 251 256 248 247 251 243 254 263 266 274 257 268 263 255 262 260 254 254 264 257 245 258 276 265 244 226 240 262 248 247 273 282 276 273 256 245 252 254 248 246 245 239 240 236 230 219 206 202 199 197 177 159 149 167 195 189 189 208 198 191 199 200 195 201 196 198 201 200 199 201 202 188 164 155 152 149 136 137 135 127 120 114 111 110 112 116 -9999 -9999 -9999 -9999 -9999 -9999 -9999 -9999 -9999 -9999 -9999 -9999 -9999 -9999 -9999 -9999 -9999 -9999
-9999 -9999 -9999 -9999 -9999 -9999 -9999 -9999 -9999 -9999 -9999 -9999 -9999 -9999 -9999 -9999 -9999 -9999 -9999 -9999 -9999 -9999 -9999 -9999 -9999 -9999 -9999 -9999 -9999 -9999 -9999 -9999 -9999 -9999 -9999 -9999 -9999 -9999 -9999 -9999 -9999 -9999 -9999 -9999 -9999 -9999 -9999 -9999 -9999 -9999 -9999 -9999 -9999 -9999 -9999 -9999 -9999 -9999 -9999 -9999 -9999 -9999 -9999 -9999 -9999 263 258 261 263 250 252 254 262 278 280 258 260 257 269 266 268 261 259 270 253 249 255 267 258 245 234 243 269 266 252 276 283 274 272 256 258 254 255 256 254 253 241 238 238 226 204 208 208 208 200 190 168 156 161 175 179 194 207 200 197 207 200 196 203 192 200 197 194 198 201 194 183 176 170 157 146 149 144 131 121 114 112 120 125 122 112 -9999 -9999 -9999 -9999 -9999 -9999 -9999 -9999 -9999 -9999 -9999 -9999 -9999 -9999 -9999 -9999 -9999 -9999
-9999 -9999 -9999 -9999 -9999 -9999 -9999 -9999 -9999 -9999 -9999 -9999 -9999 -9999 -9999 -9999 -9999 -9999 -9999 -9999 -9999 -9999 -9999 -9999 -9999 -9999 -9999 -9999 -9999 -9999 -9999 -9999 -9999 -9999 -9999 -9999 -9999 -9999 -9999 -9999 -9999 -9999 -9999 -9999 -9999 -9999 -9999 -9999 -9999 -9999 -9999 -9999 -9999 -9999 -9999 -9999 -9999 -9999 -9999 -9999 -9999 -9999 -9999 -9999 270 270 265 267 254 250 256 264 267 274 276 266 267 269 265 267 264 257 270 273 264 272 261 260 255 257 250 225 232 254 259 275 275 273 271 265 268 264 265 264 266 260 240 237 226 218 226 226 208 206 203 201 179 160 169 177 176 191 204 206 202 205 199 198 199 195 199 196 195 197 197 184 176 171 158 152 145 156 151 138 129 119 121 121 118 117 109 -9999 -9999 -9999 -9999 -9999 -9999 -9999 -9999 -9999 -9999 -9999 -9999 -9999 -9999 -9999 -9999 -9999 -9999
-9999 -9999 -9999 -9999 -9999 -9999 -9999 -9999 -9999 -9999 -9999 -9999 -9999 -9999 -9999 -9999 -9999 -9999 -9999 -9999 -9999 -9999 -9999 -9999 -9999 -9999 -9999 -9999 -9999 -9999 -9999 -9999 -9999 -9999 -9999 -9999 -9999 -9999 -9999 -9999 -9999 -9999 -9999 -9999 -9999 -9999 -9999 -9999 -9999 -9999 -9999 -9999 -9999 -9999 -9999 -9999 -9999 -9999 -9999 -9999 -9999 -9999 -9999 -9999 276 269 269 261 252 250 260 280 292 280 272 273 277 281 270 271 267 273 284 280 267 278 270 266 262 273 274 223 218 240 259 281 278 280 277 267 272 272 271 263 260 253 240 228 224 237 238 222 212 208 212 203 172 158 170 191 185 187 199 214 209 199 200 202 202 208 205 203 200 202 198 190 173 164 161 160 144 145 142 139 125 119 124 121 117 121 128 -9999 -9999 -9999 -9999 -9999 -9999 -9999 -9999 -9999 -9999 -9999 -9999 -9999 -9999 -9999 -9999 -9999 -9999
-9999 -9999 -9999 -9999 -9999 -9999 -9999 -9999 -9999 -9999 -9999 -9999 -9999 -9999 -9999 -9999 -9999 -9999 -9999 -9999 -9999 -9999 -9999 -9999 -9999 -9999 -9999 -9999 -9999 -9999 -9999 -9999 -9999 -9999 -9999 -9999 -9999 -9999 -9999 -9999 -9999 -9999 -9999 -9999 -9999 -9999 -9999 -9999 -9999 -9999 -9999 -9999 -9999 -9999 -9999 -9999 -9999 -9999 -9999 -9999 -9999 -9999 -9999 -9999 282 278 262 255 259 253 269 282 294 285 274 279 284 276 276 271 269 277 284 273 267 279 279 283 276 275 279 230 236 251 278 285 286 279 274 273 276 285 277 270 263 249 238 238 249 247 229 232 223 214 211 191 171 163 177 195 191 189 209 213 201 202 199 205 202 204 206 201 201 199 203 189 169 168 173 149 141 147 141 133 123 127 125 119 111 101 -9999 -9999 -9999 -9999 -9999 -9999 -9999 -9999 -9999 -9999 -9999 -9999 -9999 -9999 -9999 -9999 -9999 -9999 -9999
-9999 -9999 -9999 -9999 -9999 -9999 -9999 -9999 -9999 -9999 -9999 -9999 -9999 -9999 -9999 -9999 -9999 -9999 -9999 -9999 -9999 -9999 -9999 -9999 -9999 -9999 -9999 -9999 -9999 -9999 -9999 -9999 -9999 -9999 -9999 -9999 -9999 -9999 -9999 -9999 -9999 -9999 -9999 -9999 -9999 -9999 -9999 -9999 -9999 -9999 -9999 -9999 -9999 -9999 -9999 -9999 -9999 -9999 -9999 -9999 -9999 -9999 -9999 -9999 281 278 271 273 265 264 275 291 296 297 294 287 279 274 276 272 280 292 286 274 283 289 278 277 283 284 282 245 262 257 291 298 292 283 283 275 285 288 272 270 265 247 234 248 255 239 239 251 224 218 197 176 169 173 184 195 201 196 217 213 214 214 206 215 201 195 200 194 195 195 190 193 184 167 152 146 148 155 140 130 130 131 131 115 111 103 -9999 -9999 -9999 -9999 -9999 -9999 -9999 -9999 -9999 -9999 -9999 -9999 -9999 -9999 -9999 -9999 -9999 -9999 -9999
-9999 -9999 -9999 -9999 -9999 -9999 -9999 -9999 -9999 -9999 -9999 -9999 -9999 -9999 -9999 -9999 -9999 -9999 -9999 -9999 -9999 -9999 -9999 -9999 -9999 -9999 -9999 -9999 -9999 -9999 -9999 -9999 -9999 -9999 -9999 -9999 -9999 -9999 -9999 -9999 -9999 -9999 -9999 -9999 -9999 -9999 -9999 -9999 -9999 -9999 -9999 -9999 -9999 -9999 -9999 -9999 -9999 -9999 -9999 -9999 -9999 -9999 -9999 279 281 289 282 286 281 270 280 294 303 305 300 291 291 284 279 276 292 297 287 289 295 282 276 278 283 290 281 249 277 268 280 294 292 296 291 276 282 281 270 257 249 246 248 258 256 257 252 240 228 211 185 167 164 179 205 212 209 212 221 212 225 223 216 206 208 204 198 193 199 202 195 194 173 162 147 144 156 154 139 145 133 135 131 117 112 116 -9999 -9999 -9999 -9999 -9999 -9999 -9999 -9999 -9999 -9999 -9999 -9999 -9999 -9999 -9999 -9999 -9999 -9999 -9999
-9999 -9999 -9999 -9999 -9999 -9999 -9999 -9999 -9999 -9999 -9999 -9999 -9999 -9999 -9999 -9999 -9999 -9999 -9999 -9999 -9999 -9999 -9999 -9999 -9999 -9999 -9999 -9999 -9999 -9999 -9999 -9999 -9999 -9999 -9999 -9999 -9999 -9999 -9999 -9999 -9999 -9999 -9999 -9999 -9999 -9999 -9999 -9999 -9999 -9999 -9999 -9999 -9999 -9999 -9999 -9999 -9999 -9999 -9999 -9999 -9999 -9999 -9999 277 286 299 283 287 298 285 296 296 293 301 296 302 300 284 277 282 298 301 293 289 302 301 287 285 287 287 287 253 272 269 289 296 296 291 284 281 285 278 260 261 256 249 255 266 266 262 248 235 238 216 182 175 182 197 213 213 213 216 210 218 218 219 220 210 210 197 197 201 201 202 190 179 169 159 148 152 150 147 149 148 118 116 115 113 109 127 -9999 -9999 -9999 -9999 -9999 -9999 -9999 -9999 -9999 -9999 -9999 -9999 -9999 -9999 -9999 -9999 -9999 -9999 -9999
-9999 -9999 -9999 -9999 -9999 -9999 -9999 -9999 -9999 -9999 -9999 -9999 -9999 -9999 -9999 -9999 -9999 -9999 -9999 -9999 -9999 -9999 -9999 -9999 -9999 -9999 -9999 -9999 -9999 -9999 -9999 -9999 -9999 -9999 -9999 -9999 -9999 -9999 -9999 -9999 -9999 -9999 -9999 -9999 -9999 -9999 -9999 -9999 -9999 -9999 -9999 -9999 -9999 -9999 -9999 -9999 -9999 -9999 -9999 -9999 -9999 -9999 -9999 294 296 306 300 299 308 300 302 301 297 302 295 304 305 285 280 290 306 310 299 290 305 300 300 297 292 294 290 255 276 274 297 303 304 300 295 302 291 277 272 273 266 262 267 266 263 262 253 245 229 191 181 182 209 215 217 215 222 222 216 223 220 219 220 217 207 189 185 192 202 204 189 184 180 166 155 156 149 148 145 131 105 101 100 105 121 -9999 -9999 -9999 -9999 -9999 -9999 -9999 -9999 -9999 -9999 -9999 -9999 -9999 -9999 -9999 -9999 -9999 -9999 -9999 -9999
-9999 -9999 -9999 -9999 -9999 -9999 -9999 -9999 -9999 -9999 -9999 -9999 -9999 -9999 -9999 -9999 -9999 -9999 -9999 -9999 -9999 -9999 -9999 -9999 -9999 -9999 -9999 -9999 -9999 -9999 -9999 -9999 -9999 -9999 -9999 -9999 -9999 -9999 -9999 -9999 -9999 -9999 -9999 -9999 -9999 -9999 -9999 -9999 -9999 -9999 -9999 -9999 -9999 -9999 -9999 -9999 -9999 -9999 -9999 -9999 -9999 -9999 -9999 298 309 314 319 308 319 317 307 316 306 301 300 312 306 299 292 299 315 311 298 303 312 300 301 301 293 287 271 242 284 286 309 305 310 312 310 303 293 287 285 273 271 265 253 243 243 244 232 212 200 191 185 192 223 224 219 223 233 233 228 230 228 225 221 210 197 188 173 169 189 201 195 194 181 164 154 136 128 139 138 132 123 102 104 110 132 -9999 -9999 -9999 -9999 -9999 -9999 -9999 -9999 -9999 -9999 -9999 -9999 -9999 -9999 -9999 -9999 -9999 -9999 -9999 -9999
-9999 -9999 -9999 -9999 -9999 -9999 -9999 -9999 -9999 -9999 -9999 -9999 -9999 -9999 -9999 -9999 -9999 -9999 -9999 -9999 -9999 -9999 -9999 -9999 -9999 -9999 -9999 -9999 -9999 -9999 -9999 -9999 -9999 -9999 -9999 -9999 -9999 -9999 -9999 -9999 -9999 -9999 -9999 -9999 -9999 -9999 -9999 -9999 -9999 -9999 -9999 -9999 -9999 -9999 -9999 -9999 -9999 -9999 -9999 -9999 -9999 -9999 303 300 306 315 326 321 324 322 316 326 319 298 295 308 306 310 302 303 314 318 306 305 316 300 297 304 296 268 239 262 296 298 303 308 316 318 311 300 288 291 285 277 262 249 236 232 222 211 206 201 201 194 189 198 216 226 226 231 233 229 229 234 228 221 203 184 175 175 171 176 170 189 185 171 162 154 138 130 136 133 128 121 113 121 129 127 133 -9999 -9999 -9999 -9999 -9999 -9999 -9999 -9999 -9999 -9999 -9999 -9999 -9999 -9999 -9999 -9999 -9999 -9999 -9999 -9999
-9999 -9999 -9999 -9999 -9999 -9999 -9999 -9999 -9999 -9999 -9999 -9999 -9999 -9999 -9999 -9999 -9999 -9999 -9999 -9999 -9999 -9999 -9999 -9999 -9999 -9999 -9999 -9999 -9999 -9999 -9999 -9999 -9999 -9999 -9999 -9999 -9999 -9999 -9999 -9999 -9999 -9999 -9999 -9999 -9999 -9999 -9999 -9999 -9999 -9999 -9999 -9999 -9999 -9999 -9999 -9999 -9999 -9999 -9999 -9999 -9999 -9999 310 305 309 315 332 330 323 327 317 323 320 304 302 307 322 318 311 312 313 325 310 317 316 308 302 284 258 252 262 294 306 310 316 307 321 315 310 305 296 285 286 266 256 253 248 237 222 205 217 227 227 191 201 218 223 226 232 236 239 234 237 234 216 216 203 183 190 199 188 197 182 168 161 150 143 140 131 150 162 151 128 120 122 139 143 146 145 -9999 -9999 -9999 -9999 -9999 -9999 -9999 -9999 -9999 -9999 -9999 -9999 -9999 -9999 -9999 -9999 -9999 -9999 -9999 -9999
-9999 -9999 -9999 -9999 -9999 -9999 -9999 -9999 -9999 -9999 -9999 -9999 -9999 -9999 -9999 -9999 -9999 -9999 -9999 -9999 -9999 -9999 -9999 -9999 -9999 -9999 -9999 -9999 -9999 -9999 -9999 -9999 -9999 -9999 -9999 -9999 -9999 -9999 -9999 -9999 -9999 -9999 -9999 -9999 -9999 -9999 -9999 -9999 -9999 -9999 -9999 -9999 -9999 -9999 -9999 -9999 -9999 -9999 -9999 -9999 -9999 -9999 325 318 323 326 333 334 327 326 326 321 325 316 313 315 333 336 338 342 329 313 307 314 311 310 298 273 247 275 297 304 308 306 319 311 321 321 321 313 296 280 270 265 262 254 232 217 212 219 238 240 226 189 202 238 237 230 234 240 246 239 235 237 221 213 200 186 197 201 192 205 201 174 155 167 160 141 141 160 166 146 122 132 154 144 145 153 154 -9999 -9999 -9999 -9999 -9999 -9999 -9999 -9999 -9999 -9999 -9999 -9999 -9999 -9999 -9999 -9999 -9999 -9999 -9999 -9999
-9999 -9999 -9999 -9999 -9999 -9999 -9999 -9999 -9999 -9999 -9999 -9999 -9999 -9999 -9999 -9999 -9999 -9999 -9999 -9999 -9999 -9999 -9999 -9999 -9999 -9999 -9999 -9999 -9999 -9999 -9999 -9999 -9999 -9999 -9999 -9999 -9999 -9999 -9999 -9999 -9999 -9999 -9999 -9999 -9999 -9999 -9999 -9999 -9999 -9999 -9999 -9999 -9999 -9999 -9999 -9999 -9999 -9999 -9999 -9999 -9999 -9999 331 320 332 341 337 339 343 345 340 334 332 325 326 316 319 338 345 342 326 316 312 326 320 317 286 257 257 298 321 314 317 308 322 316 320 321 319 311 294 275 273 269 265 247 220 220 232 242 243 228 224 206 200 231 243 235 230 242 241 239 243 235 216 210 191 195 208 204 206 209 191 167 174 177 155 156 167 171 168 138 127 142 163 146 148 156 -9999 -9999 -9999 -9999 -9999 -9999 -9999 -9999 -9999 -9999 -9999 -9999 -9999 -9999 -9999 -9999 -9999 -9999 -9999 -9999 -9999
-9999 -9999 -9999 -9999 -9999 -9999 -9999 -9999 -9999 -9999 -9999 -9999 -9999 -9999 -9999 -9999 -9999 -9999 -9999 -9999 -9999 -9999 -9999 -9999 -9999 -9999 -9999 -9999 -9999 -9999 -9999 -9999 -9999 -9999 -9999 -9999 -9999 -9999 -9999 -9999 -9999 -9999 -9999 -9999 -9999 -9999 -9999 -9999 -9999 -9999 -9999 -9999 -9999 -9999 -9999 -9999 -9999 -9999 -9999 -9999 -9999 340 336 329 343 341 341 350 355 352 355 340 343 332 331 320 328 341 345 338 338 323 330 330 328 322 290 261 268 316 320 316 323 308 319 325 328 328 319 302 286 290 285 280 263 233 229 243 251 251 244 232 231 213 206 231 245 247 243 248 243 236 232 224 202 197 196 209 215 221 219 207 179 175 189 171 163 167 176 170 152 134 132 154 166 148 151 161 -9999 -9999 -9999 -9999 -9999 -9999 -9999 -9999 -9999 -9999 -9999 -9999 -9999 -9999 -9999 -9999 -9999 -9999 -9999 -9999 -9999
-9999 -9999 -9999 -9999 -9999 -9999 -9999 -9999 -9999 -9999 -9999 -9999 -9999 -9999 -9999 -9999 -9999 -9999 -9999 -9999 -9999 -9999 -9999 -9999 -9999 -9999 -9999 -9999 -9999 -9999 -9999 -9999 -9999 -9999 -9999 -9999 -9999 -9999 -9999 -9999 -9999 -9999 -9999 -9999 -9999 -9999 -9999 -9999 -9999 -9999 -9999 -9999 -9999 -9999 -9999 -9999 -9999 -9999 -9999 -9999 -9999 337 335 345 344 341 355 358 357 359 357 342 343 338 342 323 321 335 337 348 346 336 334 328 334 324 285 262 271 320 332 317 322 311 325 325 325 325 311 297 301 299 297 272 248 230 229 258 263 249 246 248 235 215 210 235 249 256 252 248 249 231 214 214 212 210 218 215 220 222 213 190 191 205 200 175 178 169 169 156 136 139 153 168 158 167 156 165 -9999 -9999 -9999 -9999 -9999 -9999 -9999 -9999 -9999 -9999 -9999 -9999 -9999 -9999 -9999 -9999 -9999 -9999 -9999 -9999 -9999
-9999 -9999 -9999 -9999 -9999 -9999 -9999 -9999 -9999 -9999 -9999 -9999 -9999 -9999 -9999 -9999 -9999 -9999 -9999 -9999 -9999 -9999 -9999 -9999 -9999 -9999 -9999 -9999 -9999 -9999 -9999 -9999 -9999 -9999 -9999 -9999 -9999 -9999 -9999 -9999 -9999 -9999 -9999 -9999 -9999 -9999 -9999 -9999 -9999 -9999 -9999 -9999 -9999 -9999 -9999 -9999 -9999 -9999 -9999 -9999 -9999 347 345 354 355 353 358 363 358 351 351 341 338 338 343 322 323 337 341 352 344 352 337 330 331 305 272 258 264 315 334 320 323 310 312 320 323 319 312 312 312 302 298 270 253 231 237 270 266 253 248 249 246 235 204 234 255 260 256 245 230 217 219 232 221 231 234 222 225 214 198 196 210 213 196 182 174 159 152 147 162 178 172 167 166 164 160 162 -9999 -9999 -9999 -9999 -9999 -9999 -9999 -9999 -9999 -9999 -9999 -9999 -9999 -9999 -9999 -9999 -9999 -9999 -9999 -9999 -9999
-9999 -9999 -9999 -9999 -9999 -9999 -9999 -9999 -9999 -9999 -9999 -9999 -9999 -9999 -9999 -9999 -9999 -9999 -9999 -9999 -9999 -9999 -9999 -9999 -9999 -9999 -9999 -9999 -9999 -9999 -9999 -9999 -9999 -9999 -9999 -9999 -9999 -9999 -9999 -9999 -9999 -9999 -9999 -9999 -9999 -9999 -9999 -9999 -9999 -9999 -9999 -9999 -9999 -9999 -9999 -9999 -9999 -9999 -9999 -9999 -9999 347 348 357 364 363 367 375 363 352 355 348 338 341 345 324 334 346 346 345 339 347 340 331 319 289 267 262 276 315 333 328 330 315 317 323 329 328 324 311 302 291 282 262 239 236 261 268 264 258 245 251 251 235 206 228 255 262 252 244 223 228 235 236 236 248 243 232 215 211 210 210 205 198 189 188 172 156 170 167 175 183 174 168 168 159 156 157 -9999 -9999 -9999 -9999 -9999 -9999 -9999 -9999 -9999 -9999 -9999 -9999 -9999 -9999 -9999 -9999 -9999 -9999 -9999 -9999 -9999
-9999 -9999 -9999 -9999 -9999 -9999 -9999 -9999 -9999 -9999 -9999 -9999 -9999 -9999 -9999 -9999 -9999 -9999 -9999 -9999 -9999 -9999 -9999 -9999 -9999 -9999 -9999 -9999 -9999 -9999 -9999 -9999 -9999 -9999 -9999 -9999 -9999 -9999 -9999 -9999 -9999 -9999 -9999 -9999 -9999 -9999 -9999 -9999 -9999 -9999 -9999 -9999 -9999 -9999 -9999 -9999 -9999 -9999 -9999 -9999 -9999 356 360 364 366 371 372 374 372 365 358 361 338 336 342 320 327 347 348 345 345 347 328 302 282 269 266 270 306 332 332 335 325 324 321 328 327 320 308 293 285 281 279 241 240 251 274 275 265 257 261 256 254 243 213 236 258 254 248 229 227 249 256 250 247 233 219 227 233 235 241 225 209 192 197 179 165 179 192 177 174 182 173 170 165 163 161 -9999 -9999 -9999 -9999 -9999 -9999 -9999 -9999 -9999 -9999 -9999 -9999 -9999 -9999 -9999 -9999 -9999 -9999 -9999 -9999 -9999 -9999
-9999 -9999 -9999 -9999 -9999 -9999 -9999 -9999 -9999 -9999 -9999 -9999 -9999 -9999 -9999 -9999 -9999 -9999 -9999 -9999 -9999 -9999 -9999 -9999 -9999 -9999 -9999 -9999 -9999 -9999 -9999 -9999 -9999 -9999 -9999 -9999 -9999 -9999 -9999 -9999 -9999 -9999 -9999 -9999 -9999 -9999 -9999 -9999 -9999 -9999 -9999 -9999 -9999 -9999 -9999 -9999 -9999 -9999 -9999 -9999 349 358 366 373 372 374 376 377 376 372 374 370 346 341 339 329 338 354 347 348 349 347 307 280 275 282 287 307 328 332 338 327 321 337 335 328 320 308 299 296 292 274 260 268 261 254 274 292 274 266 272 266 248 228 264 285 278 276 267 246 235 255 263 268 242 230 247 244 236 244 254 244 219 197 198 169 177 197 193 185 181 180 173 169 169 176 169 -9999 -9999 -9999 -9999 -9999 -9999 -9999 -9999 -9999 -9999 -9999 -9999 -9999 -9999 -9999 -9999 -9999 -9999 -9999 -9999 -9999 -9999
-9999 -9999 -9999 -9999 -9999 -9999 -9999 -9999 -9999 -9999 -9999 -9999 -9999 -9999 -9999 -9999 -9999 -9999 -9999 -9999 -9999 -9999 -9999 -9999 -9999 -9999 -9999 -9999 -9999 -9999 -9999 -9999 -9999 -9999 -9999 -9999 -9999 -9999 -9999 -9999 -9999 -9999 -9999 -9999 -9999 -9999 -9999 -9999 -9999 -9999 -9999 -9999 -9999 -9999 -9999 -9999 -9999 -9999 -9999 -9999 364 365 373 379 386 386 385 385 382 377 386 375 366 354 343 332 344 352 351 352 345 329 288 275 291 320 326 331 342 340 343 328 337 337 342 336 329 327 316 302 288 272 253 286 266 259 276 299 306 296 266 230 223 235 289 288 284 282 270 249 235 260 262 265 261 232 255 250 245 245 235 229 208 190 186 173 184 194 194 192 183 186 185 173 170 181 165 -9999 -9999 -9999 -9999 -9999 -9999 -9999 -9999 -9999 -9999 -9999 -9999 -9999 -9999 -9999 -9999 -9999 -9999 -9999 -9999 -9999 -9999
-9999 -9999 -9999 -9999 -9999 -9999 -9999 -9999 -9999 -9999 -9999 -9999 -9999 -9999 -9999 -9999 -9999 -9999 -9999 -9999 -9999 -9999 -9999 -9999 -9999 -9999 -9999 -9999 -9999 -9999 -9999 -9999 -9999 -9999 -9999 -9999 -9999 -9999 -9999 -9999 -9999 -9999 -9999 -9999 -9999 -9999 -9999 -9999 -9999 -9999 -9999 -9999 -9999 -9999 -9999 -9999 -9999 -9999 -9999 -9999 367 372 381 389 397 403 397 391 392 390 396 385 368 358 351 337 351 353 351 357 333 301 280 299 323 345 346 349 341 335 331 325 338 338 346 326 319 303 299 285 271 262 276 302 280 273 285 308 306 306 285 243 224 250 299 294 285 278 258 240 242 259 273 279 258 243 258 256 254 242 221 208 199 202 198 183 198 192 194 200 182 185 182 169 169 175 169 -9999 -9999 -9999 -9999 -9999 -9999 -9999 -9999 -9999 -9999 -9999 -9999 -9999 -9999 -9999 -9999 -9999 -9999 -9999 -9999 -9999 -9999
-9999 -9999 -9999 -9999 -9999 -9999 -9999 -9999 -9999 -9999 -9999 -9999 -9999 -9999 -9999 -9999 -9999 -9999 -9999 -9999 -9999 -9999 -9999 -9999 -9999 -9999 -9999 -9999 -9999 -9999 -9999 -9999 -9999 -9999 -9999 -9999 -9999 -9999 -9999 -9999 -9999 -9999 -9999 -9999 -9999 -9999 -9999 -9999 -9999 -9999 -9999 -9999 -9999 -9999 -9999 -9999 -9999 -9999 -9999 -9999 380 385 388 391 397 399 403 403 397 393 396 400 366 363 353 345 360 357 358 361 331 290 275 342 351 353 348 338 334 342 336 323 331 340 335 336 327 307 282 272 270 285 290 292 292 281 284 301 308 296 261 235 233 255 298 289 277 277 259 244 261 272 281 272 250 258 271 266 256 242 222 203 208 218 208 182 195 188 192 191 181 193 190 178 190 182 -9999 -9999 -9999 -9999 -9999 -9999 -9999 -9999 -9999 -9999 -9999 -9999 -9999 -9999 -9999 -9999 -9999 -9999 -9999 -9999 -9999 -9999 -9999
-9999 -9999 -9999 -9999 -9999 -9999 -9999 -9999 -9999 -9999 -9999 -9999 -9999 -9999 -9999 -9999 -9999 -9999 -9999 -9999 -9999 -9999 -9999 -9999 -9999 -9999 -9999 -9999 -9999 -9999 -9999 -9999 -9999 -9999 -9999 -9999 -9999 -9999 -9999 -9999 -9999 -9999 -9999 -9999 -9999 -9999 -9999 -9999 -9999 -9999 -9999 -9999 -9999 -9999 -9999 -9999 -9999 -9999 -9999 406 393 376 387 391 397 402 407 402 404 398 385 387 370 370 358 362 372 366 361 348 312 283 286 358 358 345 341 341 338 342 333 328 334 335 331 334 313 286 282 285 294 308 306 290 299 289 299 316 312 282 246 239 248 278 297 299 293 282 259 250 269 287 283 262 262 269 264 254 243 234 214 212 227 224 207 188 206 197 197 198 188 187 183 179 188 178 -9999 -9999 -9999 -9999 -9999 -9999 -9999 -9999 -9999 -9999 -9999 -9999 -9999 -9999 -9999 -9999 -9999 -9999 -9999 -9999 -9999 -9999 -9999
-9999 -9999 -9999 -9999 -9999 -9999 -9999 -9999 -9999 -9999 -9999 -9999 -9999 -9999 -9999 -9999 -9999 -9999 -9999 -9999 -9999 -9999 -9999 -9999 -9999 -9999 -9999 -9999 -9999 -9999 -9999 -9999 -9999 -9999 -9999 -9999 -9999 -9999 -9999 -9999 -9999 -9999 -9999 -9999 -9999 -9999 -9999 -9999 -9999 -9999 -9999 -9999 -9999 -9999 -9999 -9999 -9999 -9999 -9999 406 396 375 389 395 404 405 406 400 396 384 387 388 388 379 375 386 376 352 331 307 290 295 310 363 359 348 346 346 348 343 346 339 340 340 328 311 285 283 301 300 326 339 320 304 302 298 302 324 312 290 255 246 255 291 308 308 302 279 262 278 290 295 271 262 271 275 276 263 246 232 215 224 224 214 203 195 205 203 200 202 199 196 192 192 182 173 -9999 -9999 -9999 -9999 -9999 -9999 -9999 -9999 -9999 -9999 -9999 -9999 -9999 -9999 -9999 -9999 -9999 -9999 -9999 -9999 -9999 -9999 -9999
-9999 -9999 -9999 -9999 -9999 -9999 -9999 -9999 -9999 -9999 -9999 -9999 -9999 -9999 -9999 -9999 -9999 -9999 -9999 -9999 -9999 -9999 -9999 -9999 -9999 -9999 -9999 -9999 -9999 -9999 -9999 -9999 -9999 -9999 -9999 -9999 -9999 -9999 -9999 -9999 -9999 -9999 -9999 -9999 -9999 -9999 -9999 -9999 -9999 -9999 -9999 -9999 -9999 -9999 -9999 -9999 -9999 -9999 -9999 404 390 374 389 401 425 419 410 408 399 389 386 391 395 385 378 383 358 334 307 302 316 328 345 363 355 348 351 351 351 349 347 344 342 320 307 280 277 296 303 298 327 347 329 313 311 298 302 319 316 306 262 244 261 301 322 303 290 272 276 299 292 281 270 271 284 276 269 258 242 228 233 241 237 234 220 198 205 209 207 208 198 195 196 188 190 188 -9999 -9999 -9999 -9999 -9999 -9999 -9999 -9999 -9999 -9999 -9999 -9999 -9999 -9999 -9999 -9999 -9999 -9999 -9999 -9999 -9999 -9999 -9999
-9999 -9999 -9999 -9999 -9999 -9999 -9999 -9999 -9999 -9999 -9999 -9999 -9999 -9999 -9999 -9999 -9999 -9999 -9999 -9999 -9999 -9999 -9999 -9999 -9999 -9999 -9999 -9999 -9999 -9999 -9999 -9999 -9999 -9999 -9999 -9999 -9999 -9999 -9999 -9999 -9999 -9999 -9999 -9999 -9999 -9999 -9999 -9999 -9999 -9999 -9999 -9999 -9999 -9999 -9999 -9999 -9999 -9999 -9999 394 390 398 409 419 423 416 413 411 409 401 399 400 402 380 378 370 346 320 303 325 349 358 356 356 361 358 355 359 352 354 352 351 349 335 327 301 282 293 302 331 346 335 323 322 324 302 304 321 312 280 256 254 275 304 322 305 292 279 289 300 283 275 278 274 283 251 241 235 230 224 230 245 245 247 224 196 211 218 218 219 205 201 196 192 191 190 -9999 -9999 -9999 -9999 -9999 -9999 -9999 -9999 -9999 -9999 -9999 -9999 -9999 -9999 -9999 -9999 -9999 -9999 -9999 -9999 -9999 -9999 -9999
-9999 -9999 -9999 -9999 -9999 -9999 -9999 -9999 -9999 -9999 -9999 -9999 -9999 -9999 -9999 -9999 -9999 -9999 -9999 -9999 -9999 -9999 -9999 -9999 -9999 -9999 -9999 -9999 -9999 -9999 -9999 -9999 -9999 -9999 -9999 -9999 -9999 -9999 -9999 -9999 -9999 -9999 -9999 -9999 -9999 -9999 -9999 -9999 -9999 -9999 -9999 -9999 -9999 -9999 -9999 -9999 -9999 -9999 415 399 403 400 410 415 420 419 418 409 406 398 389 384 377 374 381 368 347 320 310 345 363 373 373 365 363 355 359 357 358 357 349 358 360 360 333 300 290 294 330 358 358 342 329 341 331 307 310 307 271 256 249 255 287 322 328 312 293 290 304 290 288 288 279 281 283 247 249 236 240 245 251 246 234 222 215 202 197 210 219 211 206 209 204 199 194 -9999 -9999 -9999 -9999 -9999 -9999 -9999 -9999 -9999 -9999 -9999 -9999 -9999 -9999 -9999 -9999 -9999 -9999 -9999 -9999 -9999 -9999 -9999 -9999
-9999 -9999 -9999 -9999 -9999 -9999 -9999 -9999 -9999 -9999 -9999 -9999 -9999 -9999 -9999 -9999 -9999 -9999 -9999 -9999 -9999 -9999 -9999 -9999 -9999 -9999 -9999 -9999 -9999 -9999 -9999 -9999 -9999 -9999 -9999 -9999 -9999 -9999 -9999 -9999 -9999 -9999 -9999 -9999 -9999 -9999 -9999 -9999 -9999 -9999 -9999 -9999 -9999 -9999 -9999 -9999 -9999 -9999 412 399 403 408 415 418 428 425 419 412 408 407 394 378 372 377 372 364 348 318 301 332 376 388 384 374 371 364 371 360 364 361 355 361 358 358 316 311 323 315 341 362 358 347 338 345 335 311 307 289 265 269 270 280 311 334 334 318 292 293 300 294 308 303 287 286 275 265 261 254 262 258 256 239 230 236 231 226 211 213 228 217 211 209 207 201 192 -9999 -9999 -9999 -9999 -9999 -9999 -9999 -9999 -9999 -9999 -9999 -9999 -9999 -9999 -9999 -9999 -9999 -9999 -9999 -9999 -9999 -9999 -9999 -9999
-9999 -9999 -9999 -9999 -9999 -9999 -9999 -9999 -9999 -9999 -9999 -9999 -9999 -9999 -9999 -9999 -9999 -9999 -9999 -9999 -9999 -9999 -9999 -9999 -9999 -9999 -9999 -9999 -9999 -9999 -9999 -9999 -9999 -9999 -9999 -9999 -9999 -9999 -9999 -9999 -9999 -9999 -9999 -9999 -9999 -9999 -9999 -9999 -9999 -9999 -9999 -9999 -9999 -9999 -9999 -9999 -9999 -9999 400 398 398 413 424 430 434 432 424 416 415 417 408 392 390 377 378 374 348 330 314 308 343 385 397 380 373 371 372 366 367 360 355 356 360 358 312 315 341 322 342 357 358 353 346 345 342 310 304 274 270 300 300 310 327 336 338 306 293 307 306 306 313 305 293 283 257 266 268 265 265 265 264 260 252 260 248 227 216 225 225 224 221 214 206 200 196 -9999 -9999 -9999 -9999 -9999 -9999 -9999 -9999 -9999 -9999 -9999 -9999 -9999 -9999 -9999 -9999 -9999 -9999 -9999 -9999 -9999 -9999 -9999 -9999
-9999 -9999 -9999 -9999 -9999 -9999 -9999 -9999 -9999 -9999 -9999 -9999 -9999 -9999 -9999 -9999 -9999 -9999 -9999 -9999 -9999 -9999 -9999 -9999 -9999 -9999 -9999 -9999 -9999 -9999 -9999 -9999 -9999 -9999 -9999 -9999 -9999 -9999 -9999 -9999 -9999 -9999 -9999 -9999 -9999 -9999 -9999 -9999 -9999 -9999 -9999 -9999 -9999 -9999 -9999 -9999 -9999 -9999 397 406 414 427 436 436 438 440 434 421 423 422 406 391 390 386 388 374 367 349 322 310 323 367 395 379 378 384 386 370 372 370 366 364 368 373 322 319 357 353 348 357 361 364 352 352 356 305 297 283 307 328 326 325 339 339 338 299 314 327 317 326 323 304 294 273 267 270 268 265 269 275 265 270 267 272 243 221 234 234 237 236 222 208 206 207 203 -9999 -9999 -9999 -9999 -9999 -9999 -9999 -9999 -9999 -9999 -9999 -9999 -9999 -9999 -9999 -9999 -9999 -9999 -9999 -9999 -9999 -9999 -9999 -9999
-9999 -9999 -9999 -9999 -9999 -9999 -9999 -9999 -9999 -9999 -9999 -9999 -9999 -9999 -9999 -9999 -9999 -9999 -9999 -9999 -9999 -9999 -9999 -9999 -9999 -9999 -9999 -9999 -9999 -9999 -9999 -9999 -9999 -9999 -9999 -9999 -9999 -9999 -9999 -9999 -9999 -9999 -9999 -9999 -9999 -9999 -9999 -9999 -9999 -9999 -9999 -9999 -9999 -9999 -9999 -9999 -9999 402 395 412 432 440 439 441 440 444 438 427 417 402 396 393 388 397 390 378 378 347 321 309 332 370 393 392 389 395 393 376 382 378 363 370 376 376 329 309 353 367 363 361 356 355 352 349 337 325 305 295 313 320 330 339 345 344 321 334 333 328 327 321 309 309 311 304 274 274 284 278 269 272 271 269 262 257 242 232 242 242 232 224 209 222 226 213 -9999 -9999 -9999 -9999 -9999 -9999 -9999 -9999 -9999 -9999 -9999 -9999 -9999 -9999 -9999 -9999 -9999 -9999 -9999 -9999 -9999 -9999 -9999 -9999 -9999
-9999 -9999 -9999 -9999 -9999 -9999 -9999 -9999 -9999 -9999 -9999 -9999 -9999 -9999 -9999 -9999 -9999 -9999 -9999 -9999 -9999 -9999 -9999 -9999 -9999 -9999 -9999 -9999 -9999 -9999 -9999 -9999 -9999 -9999 -9999 -9999 -9999 -9999 -9999 -9999 -9999 -9999 -9999 -9999 -9999 -9999 -9999 -9999 -9999 -9999 -9999 -9999 -9999 -9999 -9999 -9999 -9999 399 400 420 435 442 447 443 443 440 435 429 410 394 399 402 400 408 394 388 378 347 319 308 336 386 405 395 406 401 395 381 375 369 367 377 380 380 349 323 348 364 363 362 364 358 347 341 327 336 316 301 312 321 331 350 350 341 324 343 337 338 336 321 314 319 315 299 276 278 293 281 279 274 269 257 247 240 239 243 245 245 241 229 226 228 210 196 -9999 -9999 -9999 -9999 -9999 -9999 -9999 -9999 -9999 -9999 -9999 -9999 -9999 -9999 -9999 -9999 -9999 -9999 -9999 -9999 -9999 -9999 -9999 -9999 -9999
-9999 -9999 -9999 -9999 -9999 -9999 -9999 -9999 -9999 -9999 -9999 -9999 -9999 -9999 -9999 -9999 -9999 -9999 -9999 -9999 -9999 -9999 -9999 -9999 -9999 -9999 -9999 -9999 -9999 -9999 -9999 -9999 -9999 -9999 -9999 -9999 -9999 -9999 -9999 -9999 -9999 -9999 -9999 -9999 -9999 -9999 -9999 -9999 -9999 -9999 -9999 -9999 -9999 -9999 -9999 -9999 -9999 392 411 424 434 446 448 445 441 441 434 416 397 397 399 407 418 415 402 394 388 363 326 314 351 406 417 404 406 403 393 386 379 379 371 377 385 384 352 340 352 349 359 358 350 358 362 340 344 345 313 296 315 333 353 358 351 335 332 345 337 329 328 330 324 322 304 278 274 277 299 287 280 273 267 252 244 246 259 259 251 258 246 236 221 202 194 191 -9999 -9999 -9999 -9999 -9999 -9999 -9999 -9999 -9999 -9999 -9999 -9999 -9999 -9999 -9999 -9999 -9999 -9999 -9999 -9999 -9999 -9999 -9999 -9999 -9999
-9999 -9999 -9999 -9999 -9999 -9999 -9999 -9999 -9999 -9999 -9999 -9999 -9999 -9999 -9999 -9999 -9999 -9999 -9999 -9999 -9999 -9999 -9999 -9999 -9999 -9999 -9999 -9999 -9999 -9999 -9999 -9999 -9999 -9999 -9999 -9999 -9999 -9999 -9999 -9999 -9999 -9999 -9999 -9999 -9999 -9999 -9999 -9999 -9999 -9999 -9999 -9999 -9999 -9999 -9999 -9999 -9999 407 412 431 442 448 448 452 443 435 417 405 410 414 406 409 418 420 411 398 389 344 327 342 383 423 424 413 407 404 407 403 394 386 389 385 392 379 356 356 357 355 365 367 368 361 351 344 357 350 324 305 316 349 358 357 347 339 343 349 339 332 326 318 321 312 293 287 292 295 314 302 284 282 258 253 263 259 266 264 257 241 222 211 207 208 217 203 -9999 -9999 -9999 -9999 -9999 -9999 -9999 -9999 -9999 -9999 -9999 -9999 -9999 -9999 -9999 -9999 -9999 -9999 -9999 -9999 -9999 -9999 -9999 -9999 -9999
-9999 -9999 -9999 -9999 -9999 -9999 -9999 -9999 -9999 -9999 -9999 -9999 -9999 -9999 -9999 -9999 -9999 -9999 -9999 -9999 -9999 -9999 -9999 -9999 -9999 -9999 -9999 -9999 -9999 -9999 -9999 -9999 -9999 -9999 -9999 -9999 -9999 -9999 -9999 -9999 -9999 -9999 -9999 -9999 -9999 -9999 -9999 -9999 -9999 -9999 -9999 -9999 -9999 -9999 -9999 -9999 405 420 417 433 439 446 450 443 436 428 417 416 424 419 413 419 427 426 414 401 370 333 333 374 437 436 431 432 430 432 420 405 396 392 379 369 381 372 361 360 358 363 369 370 372 369 348 349 370 346 331 317 327 356 361 351 344 341 354 349 350 336 324 317 320 313 303 306 318 321 304 297 283 262 260 269 261 262 276 272 261 231 216 228 238 233 217 208 -9999 -9999 -9999 -9999 -9999 -9999 -9999 -9999 -9999 -9999 -9999 -9999 -9999 -9999 -9999 -9999 -9999 -9999 -9999 -9999 -9999 -9999 -9999 -9999 -9999
-9999 -9999 -9999 -9999 -9999 -9999 -9999 -9999 -9999 -9999 -9999 -9999 -9999 -9999 -9999 -9999 -9999 -9999 -9999 -9999 -9999 -9999 -9999 -9999 -9999 -9999 -9999 -9999 -9999 -9999 -9999 -9999 -9999 -9999 -9999 -9999 -9999 -9999 -9999 -9999 -9999 -9999 -9999 -9999 -9999 -9999 -9999 -9999 -9999 -9999 -9999 -9999 -9999 -9999 -9999 -9999 416 415 416 421 433 445 447 443 439 434 422 428 429 424 420 429 431 421 409 369 344 359 352 382 434 432 439 435 430 416 402 413 418 404 375 376 370 365 365 364 366 366 372 371 371 367 350 359 369 342 327 322 348 362 359 346 341 342 349 350 349 333 324 316 320 322 312 300 321 321 292 275 266 264 286 285 268 278 279 267 254 257 232 236 248 231 221 -9999 -9999 -9999 -9999 -9999 -9999 -9999 -9999 -9999 -9999 -9999 -9999 -9999 -9999 -9999 -9999 -9999 -9999 -9999 -9999 -9999 -9999 -9999 -9999 -9999 -9999
-9999 -9999 -9999 -9999 -9999 -9999 -9999 -9999 -9999 -9999 -9999 -9999 -9999 -9999 -9999 -9999 -9999 -9999 -9999 -9999 -9999 -9999 -9999 -9999 -9999 -9999 -9999 -9999 -9999 -9999 -9999 -9999 -9999 -9999 -9999 -9999 -9999 -9999 -9999 -9999 -9999 -9999 -9999 -9999 -9999 -9999 -9999 -9999 -9999 -9999 -9999 -9999 -9999 -9999 -9999 -9999 421 420 427 428 441 443 441 437 433 428 432 438 435 432 424 427 432 428 372 347 359 390 385 365 411 435 440 434 421 415 419 422 410 389 395 402 396 378 379 365 368 367 370 377 375 360 360 375 365 326 329 345 362 363 360 354 346 348 353 352 344 338 335 329 327 315 307 302 317 310 277 275 279 295 305 283 278 286 282 283 271 247 233 249 244 237 239 -9999 -9999 -9999 -9999 -9999 -9999 -9999 -9999 -9999 -9999 -9999 -9999 -9999 -9999 -9999 -9999 -9999 -9999 -9999 -9999 -9999 -9999 -9999 -9999 -9999 -9999
-9999 -9999 -9999 -9999 -9999 -9999 -9999 -9999 -9999 -9999 -9999 -9999 -9999 -9999 -9999 -9999 -9999 -9999 -9999 -9999 -9999 -9999 -9999 -9999 -9999 -9999 -9999 -9999 -9999 -9999 -9999 -9999 -9999 -9999 -9999 -9999 -9999 -9999 -9999 -9999 -9999 -9999 -9999 -9999 -9999 -9999 -9999 -9999 -9999 -9999 -9999 -9999 -9999 -9999 -9999 -9999 424 434 431 438 450 452 442 431 433 436 439 439 441 432 431 438 415 381 358 373 386 403 420 391 385 426 447 433 432 430 423 410 393 386 393 390 390 377 368 361 364 374 373 373 366 358 369 375 359 333 339 364 367 363 363 363 345 357 363 364 351 344 344 345 328 315 304 315 321 321 299 291 304 314 305 299 296 295 303 294 270 243 256 263 250 255 256 -9999 -9999 -9999 -9999 -9999 -9999 -9999 -9999 -9999 -9999 -9999 -9999 -9999 -9999 -9999 -9999 -9999 -9999 -9999 -9999 -9999 -9999 -9999 -9999 -9999 -9999
-9999 -9999 -9999 -9999 -9999 -9999 -9999 -9999 -9999 -9999 -9999 -9999 -9999 -9999 -9999 -9999 -9999 -9999 -9999 -9999 -9999 -9999 -9999 -9999 -9999 -9999 -9999 -9999 -9999 -9999 -9999 -9999 -9999 -9999 -9999 -9999 -9999 -9999 -9999 -9999 -9999 -9999 -9999 -9999 -9999 -9999 -9999 -9999 -9999 -9999 -9999 -9999 -9999 -9999 -9999 -9999 427 435 439 449 454 452 448 440 448 446 446 443 435 428 437 429 385 378 417 425 403 423 440 416 387 417 451 447 439 427 410 400 414 413 403 386 376 377 372 380 370 368 366 374 369 375 369 368 357 347 344 369 370 369 362 349 343 357 366 366 348 348 353 339 319 316 317 323 325 324 296 318 323 317 314 320 316 314 314 294 262 274 274 270 264 270 264 -9999 -9999 -9999 -9999 -9999 -9999 -9999 -9999 -9999 -9999 -9999 -9999 -9999 -9999 -9999 -9999 -9999 -9999 -9999 -9999 -9999 -9999 -9999 -9999 -9999 -9999
-9999 -9999 -9999 -9999 -9999 -9999 -9999 -9999 -9999 -9999 -9999 -9999 -9999 -9999 -9999 -9999 -9999 -9999 -9999 -9999 -9999 -9999 -9999 -9999 -9999 -9999 -9999 -9999 -9999 -9999 -9999 -9999 -9999 -9999 -9999 -9999 -9999 -9999 -9999 -9999 -9999 -9999 -9999 -9999 -9999 -9999 -9999 -9999 -9999 -9999 -9999 -9999 -9999 -9999 -9999 426 441 445 446 454 453 445 447 441 446 446 446 440 443 436 441 417 382 430 451 429 406 422 444 433 399 386 435 449 430 425 426 420 434 421 400 391 388 382 379 391 386 376 366 377 378 377 379 377 368 352 368 368 371 366 358 350 347 366 369 366 347 351 350 335 323 329 331 335 339 322 296 332 330 320 322 317 311 311 300 276 256 298 294 286 284 277 -9999 -9999 -9999 -9999 -9999 -9999 -9999 -9999 -9999 -9999 -9999 -9999 -9999 -9999 -9999 -9999 -9999 -9999 -9999 -9999 -9999 -9999 -9999 -9999 -9999 -9999 -9999
-9999 -9999 -9999 -9999 -9999 -9999 -9999 -9999 -9999 -9999 -9999 -9999 -9999 -9999 -9999 -9999 -9999 -9999 -9999 -9999 -9999 -9999 -9999 -9999 -9999 -9999 -9999 -9999 -9999 -9999 -9999 -9999 -9999 -9999 -9999 -9999 -9999 -9999 -9999 -9999 -9999 -9999 -9999 -9999 -9999 -9999 -9999 -9999 -9999 -9999 -9999 -9999 -9999 -9999 -9999 439 450 454 451 456 455 450 448 443 449 446 447 446 446 438 421 394 405 451 447 430 414 427 450 449 411 385 420 459 443 439 439 433 436 423 413 420 398 382 378 396 390 383 373 380 384 380 381 378 370 354 372 362 360 365 359 353 352 368 370 360 360 353 345 331 328 346 352 345 345 316 304 330 334 312 292 288 279 276 286 282 293 306 297 288 280 280 -9999 -9999 -9999 -9999 -9999 -9999 -9999 -9999 -9999 -9999 -9999 -9999 -9999 -9999 -9999 -9999 -9999 -9999 -9999 -9999 -9999 -9999 -9999 -9999 -9999 -9999 -9999
-9999 -9999 -9999 -9999 -9999 -9999 -9999 -9999 -9999 -9999 -9999 -9999 -9999 -9999 -9999 -9999 -9999 -9999 -9999 -9999 -9999 -9999 -9999 -9999 -9999 -9999 -9999 -9999 -9999 -9999 -9999 -9999 -9999 -9999 -9999 -9999 -9999 -9999 -9999 -9999 -9999 -9999 -9999 -9999 -9999 -9999 -9999 -9999 -9999 -9999 -9999 -9999 -9999 -9999 -9999 448 453 455 454 462 458 452 449 448 455 451 450 455 440 410 394 396 418 455 447 445 428 441 460 445 410 411 427 453 446 458 452 448 445 425 428 425 406 405 393 404 393 398 381 378 389 387 384 375 359 351 370 369 372 369 365 362 366 377 383 376 350 343 339 336 337 365 366 338 324 336 339 327 324 303 306 305 294 298 299 301 317 317 291 283 279 282 -9999 -9999 -9999 -9999 -9999 -9999 -9999 -9999 -9999 -9999 -9999 -9999 -9999 -9999 -9999 -9999 -9999 -9999 -9999 -9999 -9999 -9999 -9999 -9999 -9999 -9999 -9999
-9999 -9999 -9999 -9999 -9999 -9999 -9999 -9999 -9999 -9999 -9999 -9999 -9999 -9999 -9999 -9999 -9999 -9999 -9999 -9999 -9999 -9999 -9999 -9999 -9999 -9999 -9999 -9999 -9999 -9999 -9999 -9999 -9999 -9999 -9999 -9999 -9999 -9999 -9999 -9999 -9999 -9999 -9999 -9999 -9999 -9999 -9999 -9999 -9999 -9999 -9999 -9999 -9999 -9999 -9999 454 458 459 458 465 465 463 458 461 460 462 457 442 407 405 423 440 442 462 456 456 443 437 456 439 414 427 425 457 454 466 464 459 446 442 443 429 426 415 401 405 401 399 387 389 393 392 390 380 358 346 366 378 382 371 361 365 368 393 389 377 351 375 369 352 351 366 362 336 353 354 338 329 324 320 323 322 314 321 325 326 323 320 292 286 281 284 -9999 -9999 -9999 -9999 -9999 -9999 -9999 -9999 -9999 -9999 -9999 -9999 -9999 -9999 -9999 -9999 -9999 -9999 -9999 -9999 -9999 -9999 -9999 -9999 -9999 -9999 -9999
-9999 -9999 -9999 -9999 -9999 -9999 -9999 -9999 -9999 -9999 -9999 -9999 -9999 -9999 -9999 -9999 -9999 -9999 -9999 -9999 -9999 -9999 -9999 -9999 -9999 -9999 -9999 -9999 -9999 -9999 -9999 -9999 -9999 -9999 -9999 -9999 -9999 -9999 -9999 -9999 -9999 -9999 -9999 -9999 -9999 -9999 -9999 -9999 -9999 -9999 -9999 -9999 -9999 -9999 447 454 460 464 466 471 474 467 463 467 467 474 445 408 407 442 459 465 462 468 467 471 450 448 452 424 415 443 447 460 461 471 471 461 462 463 452 444 440 426 413 409 414 407 401 393 387 383 388 380 375 375 379 385 392 392 394 395 400 397 389 372 354 381 363 363 370 374 361 351 371 364 357 339 318 318 326 325 326 329 328 326 326 321 299 286 286 285 -9999 -9999 -9999 -9999 -9999 -9999 -9999 -9999 -9999 -9999 -9999 -9999 -9999 -9999 -9999 -9999 -9999 -9999 -9999 -9999 -9999 -9999 -9999 -9999 -9999 -9999 -9999
-9999 -9999 -9999 -9999 -9999 -9999 -9999 -9999 -9999 -9999 -9999 -9999 -9999 -9999 -9999 -9999 -9999 -9999 -9999 -9999 -9999 -9999 -9999 -9999 -9999 -9999 -9999 -9999 -9999 -9999 -9999 -9999 -9999 -9999 -9999 -9999 -9999 -9999 -9999 -9999 -9999 -9999 -9999 -9999 -9999 -9999 -9999 -9999 -9999 -9999 -9999 -9999 -9999 -9999 450 462 465 468 473 475 476 469 468 479 474 479 447 411 404 431 459 470 460 472 476 464 448 465 450 421 434 458 457 473 473 471 479 474 481 479 467 455 436 426 427 425 415 396 376 368 364 378 397 404 406 399 391 391 396 396 403 404 404 402 396 383 369 384 365 387 394 384 362 368 382 377 374 355 319 319 333 332 331 329 327 327 326 319 300 292 287 -9999 -9999 -9999 -9999 -9999 -9999 -9999 -9999 -9999 -9999 -9999 -9999 -9999 -9999 -9999 -9999 -9999 -9999 -9999 -9999 -9999 -9999 -9999 -9999 -9999 -9999 -9999 -9999
-9999 -9999 -9999 -9999 -9999 -9999 -9999 -9999 -9999 -9999 -9999 -9999 -9999 -9999 -9999 -9999 -9999 -9999 -9999 -9999 -9999 -9999 -9999 -9999 -9999 -9999 -9999 -9999 -9999 -9999 -9999 -9999 -9999 -9999 -9999 -9999 -9999 -9999 -9999 -9999 -9999 -9999 -9999 -9999 -9999 -9999 -9999 -9999 -9999 -9999 -9999 -9999 -9999 -9999 443 453 462 471 476 476 472 469 476 487 489 489 472 430 408 410 438 474 477 487 491 455 454 468 453 422 441 469 462 476 484 472 484 481 494 485 467 461 451 450 447 441 412 385 381 378 374 385 393 404 410 409 397 395 404 406 410 409 409 403 401 392 373 380 382 391 388 375 370 378 387 387 381 348 330 335 339 335 331 327 325 318 321 317 304 294 292 -9999 -9999 -9999 -9999 -9999 -9999 -9999 -9999 -9999 -9999 -9999 -9999 -9999 -9999 -9999 -9999 -9999 -9999 -9999 -9999 -9999 -9999 -9999 -9999 -9999 -9999 -9999 -9999
-9999 -9999 -9999 -9999 -9999 -9999 -9999 -9999 -9999 -9999 -9999 -9999 -9999 -9999 -9999 -9999 -9999 -9999 -9999 -9999 -9999 -9999 -9999 -9999 -9999 -9999 -9999 -9999 -9999 -9999 -9999 -9999 -9999 -9999 -9999 -9999 -9999 -9999 -9999 -9999 -9999 -9999 -9999 -9999 -9999 -9999 -9999 -9999 -9999 -9999 -9999 -9999 -9999 -9999 447 450 470 475 476 472 475 482 482 493 493 497 491 442 411 422 455 490 499 498 496 469 481 471 456 433 458 480 486 482 487 489 487 494 492 485 478 470 468 462 450 441 397 389 399 389 385 390 403 415 416 415 405 402 403 411 415 414 412 405 409 399 381 393 404 402 400 398 395 389 392 393 381 357 356 349 343 337 333 319 308 305 311 324 314 305 298 -9999 -9999 -9999 -9999 -9999 -9999 -9999 -9999 -9999 -9999 -9999 -9999 -9999 -9999 -9999 -9999 -9999 -9999 -9999 -9999 -9999 -9999 -9999 -9999 -9999 -9999 -9999 -9999
-9999 -9999 -9999 -9999 -9999 -9999 -9999 -9999 -9999 -9999 -9999 -9999 -9999 -9999 -9999 -9999 -9999 -9999 -9999 -9999 -9999 -9999 -9999 -9999 -9999 -9999 -9999 -9999 -9999 -9999 -9999 -9999 -9999 -9999 -9999 -9999 -9999 -9999 -9999 -9999 -9999 -9999 -9999 -9999 -9999 -9999 -9999 -9999 -9999 -9999 -9999 -9999 -9999 463 451 460 472 474 478 473 475 487 491 493 500 503 497 459 424 433 467 503 510 508 496 490 498 493 468 430 462 495 496 493 493 495 490 491 492 492 480 456 448 439 432 420 387 391 414 405 397 398 400 411 415 412 407 404 405 412 415 420 419 410 411 407 400 407 412 413 414 408 403 402 393 393 369 362 363 355 349 346 340 321 314 321 326 333 323 318 303 -9999 -9999 -9999 -9999 -9999 -9999 -9999 -9999 -9999 -9999 -9999 -9999 -9999 -9999 -9999 -9999 -9999 -9999 -9999 -9999 -9999 -9999 -9999 -9999 -9999 -9999 -9999 -9999
-9999 -9999 -9999 -9999 -9999 -9999 -9999 -9999 -9999 -9999 -9999 -9999 -9999 -9999 -9999 -9999 -9999 -9999 -9999 -9999 -9999 -9999 -9999 -9999 -9999 -9999 -9999 -9999 -9999 -9999 -9999 -9999 -9999 -9999 -9999 -9999 -9999 -9999 -9999 -9999 -9999 -9999 -9999 -9999 -9999 -9999 -9999 -9999 -9999 -9999 -9999 -9999 -9999 472 453 462 465 471 479 476 473 486 487 500 505 501 499 489 447 438 484 512 509 505 497 499 499 495 466 439 464 493 502 493 496 494 493 493 495 483 467 457 449 437 428 409 414 429 430 422 402 410 407 406 415 413 414 413 411 411 415 424 425 418 414 409 406 410 418 424 422 418 411 406 399 391 375 377 372 362 354 345 338 341 338 341 331 332 336 322 308 -9999 -9999 -9999 -9999 -9999 -9999 -9999 -9999 -9999 -9999 -9999 -9999 -9999 -9999 -9999 -9999 -9999 -9999 -9999 -9999 -9999 -9999 -9999 -9999 -9999 -9999 -9999 -9999
-9999 -9999 -9999 -9999 -9999 -9999 -9999 -9999 -9999 -9999 -9999 -9999 -9999 -9999 -9999 -9999 -9999 -9999 -9999 -9999 -9999 -9999 -9999 -9999 -9999 -9999 -9999 -9999 -9999 -9999 -9999 -9999 -9999 -9999 -9999 -9999 -9999 -9999 -9999 -9999 -9999 -9999 -9999 -9999 -9999 -9999 -9999 -9999 -9999 -9999 -9999 -9999 -9999 471 460 466 475 481 488 495 496 497 495 505 509 507 500 491 445 443 474 511 513 506 498 502 506 497 462 435 456 488 503 495 504 499 496 495 491 478 480 480 464 447 430 401 443 435 421 420 406 409 410 417 424 424 425 423 420 424 426 428 428 426 422 419 412 413 423 426 428 426 418 411 404 396 392 390 380 374 369 359 352 349 350 352 339 341 341 326 -9999 -9999 -9999 -9999 -9999 -9999 -9999 -9999 -9999 -9999 -9999 -9999 -9999 -9999 -9999 -9999 -9999 -9999 -9999 -9999 -9999 -9999 -9999 -9999 -9999 -9999 -9999 -9999 -9999
-9999 -9999 -9999 -9999 -9999 -9999 -9999 -9999 -9999 -9999 -9999 -9999 -9999 -9999 -9999 -9999 -9999 -9999 -9999 -9999 -9999 -9999 -9999 -9999 -9999 -9999 -9999 -9999 -9999 -9999 -9999 -9999 -9999 -9999 -9999 -9999 -9999 -9999 -9999 -9999 -9999 -9999 -9999 -9999 -9999 -9999 -9999 -9999 -9999 -9999 -9999 -9999 -9999 482 472 485 488 489 494 496 504 508 514 517 513 511 509 499 465 439 443 483 504 510 505 507 508 504 480 455 444 474 498 496 501 494 501 498 491 491 494 489 480 462 437 414 443 426 426 423 417 411 406 414 430 436 432 437 434 432 434 433 437 436 433 429 421 414 424 430 431 428 421 414 409 406 402 401 385 382 384 378 363 350 358 357 341 343 342 329 -9999 -9999 -9999 -9999 -9999 -9999 -9999 -9999 -9999 -9999 -9999 -9999 -9999 -9999 -9999 -9999 -9999 -9999 -9999 -9999 -9999 -9999 -9999 -9999 -9999 -9999 -9999 -9999 -9999
-9999 -9999 -9999 -9999 -9999 -9999 -9999 -9999 -9999 -9999 -9999 -9999 -9999 -9999 -9999 -9999 -9999 -9999 -9999 -9999 -9999 -9999 -9999 -9999 -9999 -9999 -9999 -9999 -9999 -9999 -9999 -9999 -9999 -9999 -9999 -9999 -9999 -9999 -9999 -9999 -9999 -9999 -9999 -9999 -9999 -9999 -9999 -9999 -9999 -9999 -9999 -9999 486 491 501 502 501 498 501 502 513 519 518 522 518 514 519 503 471 450 429 460 499 509 504 507 493 489 484 470 455 463 490 505 503 498 495 500 506 502 493 494 484 472 441 409 444 442 444 441 426 411 413 419 429 434 434 444 438 440 443 444 448 446 440 436 433 422 429 432 432 432 428 418 416 406 401 409 393 388 389 380 372 362 366 357 351 354 349 355 -9999 -9999 -9999 -9999 -9999 -9999 -9999 -9999 -9999 -9999 -9999 -9999 -9999 -9999 -9999 -9999 -9999 -9999 -9999 -9999 -9999 -9999 -9999 -9999 -9999 -9999 -9999 -9999 -9999
-9999 -9999 -9999 -9999 -9999 -9999 -9999 -9999 -9999 -9999 -9999 -9999 -9999 -9999 -9999 -9999 -9999 -9999 -9999 -9999 -9999 -9999 -9999 -9999 -9999 -9999 -9999 -9999 -9999 -9999 -9999 -9999 -9999 -9999 -9999 -9999 -9999 -9999 -9999 -9999 -9999 -9999 -9999 -9999 -9999 -9999 -9999 -9999 -9999 -9999 -9999 -9999 495 494 523 521 525 525 526 529 525 524 522 526 525 520 516 481 444 438 434 466 502 510 511 507 494 490 487 476 467 480 491 499 504 503 498 501 498 500 491 486 476 466 451 428 453 457 451 443 423 412 421 422 429 433 439 444 446 448 449 451 452 455 452 451 447 442 429 428 431 433 430 424 423 415 406 405 401 395 388 392 388 377 373 367 365 362 358 366 -9999 -9999 -9999 -9999 -9999 -9999 -9999 -9999 -9999 -9999 -9999 -9999 -9999 -9999 -9999 -9999 -9999 -9999 -9999 -9999 -9999 -9999 -9999 -9999 -9999 -9999 -9999 -9999 -9999
-9999 -9999 -9999 -9999 -9999 -9999 -9999 -9999 -9999 -9999 -9999 -9999 -9999 -9999 -9999 -9999 -9999 -9999 -9999 -9999 -9999 -9999 -9999 -9999 -9999 -9999 -9999 -9999 -9999 -9999 -9999 -9999 -9999 -9999 -9999 -9999 -9999 -9999 -9999 -9999 -9999 -9999 -9999 -9999 -9999 -9999 -9999 -9999 -9999 -9999 -9999 -9999 505 498 533 527 538 547 551 553 542 534 534 531 528 525 506 468 459 486 485 496 513 519 517 517 501 495 491 471 475 500 495 498 505 503 494 495 502 496 481 476 464 451 450 439 438 462 453 445 432 416 422 424 429 442 453 454 458 458 454 452 455 459 459 462 457 451 435 430 439 435 432 430 426 418 410 407 401 394 392 397 386 384 383 380 374 371 370 -9999 -9999 -9999 -9999 -9999 -9999 -9999 -9999 -9999 -9999 -9999 -9999 -9999 -9999 -9999 -9999 -9999 -9999 -9999 -9999 -9999 -9999 -9999 -9999 -9999 -9999 -9999 -9999 -9999 -9999
